%YAML:1.0
refImg: !!opencv-matrix
   rows: 47
   cols: 320
   dt: w
   data: [ 0, 65535, 65535, 65535, 65535, 65535, 65535, 65535, 65535, 65535, 65535, 65535, 65535, 65535, 65535, 65535, 65535, 65535, 65535, 65535, 65535, 65535, 65535, 65535, 65535, 65535, 65535, 65535, 65535, 65535, 65535, 65535, 65535, 65535, 65535, 65535, 65535, 65535, 65535, 65535, 65535, 65535, 65535, 65535, 65535, 65535, 65535, 65535, 65535, 65535, 65535, 65535, 65535, 65535, 65535, 65535, 65535, 65535, 65535, 65535, 65535, 65535, 65535, 65535, 65535, 65535, 65535, 65535, 65535, 65535, 65535, 65535, 65535, 65535, 65535, 65535, 65535, 65535, 65535, 65535, 65535, 65535, 65535, 65535, 65535, 65535, 65535, 65535, 65535, 65535, 65535, 65535, 65535, 65535, 65535, 0, 0, 65535, 65535, 65535, 0, 0, 0, 65535, 65535, 65535, 0, 65535, 0, 0, 0, 0, 0, 0, 0, 0, 0, 0, 0, 0, 0, 0, 0, 0, 65535, 0, 65535, 65535, 65535, 65535, 65535, 65535, 0, 0, 0, 0, 0, 0, 0, 0, 0, 0, 0, 0, 0, 0, 0, 0, 0, 0, 0, 0, 0, 0, 0, 0, 0, 0, 0, 0, 0, 0, 0, 0, 0, 0, 0, 0, 0, 0, 0, 0, 0, 0, 0, 0, 0, 0, 0, 0, 0, 0, 0, 0, 0, 0, 0, 0, 0, 65535, 65535, 65535, 0, 0, 0, 0, 65535, 65535, 65535, 65535, 65535, 65535, 65535, 65535, 65535, 65535, 65535, 65535, 0, 0, 65535, 65535, 65535, 65535, 65535, 65535, 65535, 65535, 65535, 65535, 65535, 65535, 65535, 65535, 65535, 65535, 65535, 65535, 65535, 65535, 65535, 65535, 65535, 65535, 65535, 65535, 65535, 65535, 65535, 65535, 65535, 65535, 65535, 65535, 65535, 65535, 65535, 65535, 65535, 65535, 65535, 65535, 65535, 65535, 65535, 65535, 65535, 65535, 65535, 65535, 65535, 65535, 65535, 65535, 65535, 65535, 65535, 0, 65535, 65535, 65535, 65535, 65535, 65535, 65535, 65535, 65535, 65535, 65535, 65535, 65535, 65535, 65535, 65535, 65535, 65535, 65535, 65535, 65535, 65535, 65535, 65535, 65535, 65535, 65535, 65535, 65535, 65535, 65535, 65535, 65535, 0, 65535, 65535, 65535, 65535, 65535, 65535, 65535, 65535, 65535, 65535, 65535, 65535, 65535, 65535, 0, 0, 0, 0,
       0, 65535, 65535, 65535, 65535, 65535, 65535, 65535, 65535, 65535, 65535, 65535, 65535, 65535, 65535, 65535, 65535, 65535, 65535, 65535, 65535, 65535, 65535, 65535, 65535, 65535, 65535, 65535, 65535, 65535, 65535, 65535, 65535, 65535, 65535, 65535, 65535, 65535, 65535, 65535, 65535, 65535, 65535, 65535, 65535, 65535, 65535, 65535, 65535, 65535, 65535, 65535, 65535, 65535, 65535, 65535, 65535, 65535, 65535, 65535, 65535, 65535, 65535, 65535, 65535, 65535, 65535, 65535, 65535, 65535, 65535, 65535, 65535, 65535, 65535, 65535, 65535, 65535, 65535, 65535, 65535, 65535, 65535, 65535, 65535, 65535, 65535, 65535, 65535, 65535, 65535, 65535, 65535, 65535, 65535, 65535, 65535, 65535, 65535, 65535, 65535, 65535, 65535, 65535, 65535, 65535, 65535, 65535, 0, 0, 0, 0, 0, 0, 0, 0, 0, 0, 0, 0, 0, 0, 0, 0, 0, 0, 65535, 65535, 65535, 65535, 65535, 65535, 0, 0, 0, 0, 0, 0, 0, 0, 0, 0, 0, 0, 0, 0, 0, 0, 0, 0, 0, 0, 0, 0, 0, 0, 0, 0, 0, 0, 0, 0, 0, 0, 0, 0, 0, 0, 0, 0, 0, 0, 0, 0, 0, 0, 0, 0, 0, 0, 0, 0, 0, 0, 0, 0, 0, 0, 0, 0, 0, 0, 0, 0, 0, 0, 0, 0, 65535, 65535, 65535, 65535, 65535, 65535, 65535, 65535, 65535, 65535, 0, 0, 0, 0, 65535, 65535, 65535, 65535, 65535, 65535, 65535, 65535, 65535, 65535, 65535, 65535, 65535, 65535, 65535, 65535, 65535, 65535, 65535, 65535, 65535, 65535, 65535, 65535, 65535, 65535, 65535, 65535, 65535, 65535, 65535, 65535, 65535, 65535, 65535, 65535, 65535, 65535, 65535, 65535, 65535, 65535, 65535, 65535, 65535, 65535, 65535, 65535, 65535, 65535, 65535, 65535, 65535, 65535, 65535, 65535, 65535, 65535, 65535, 65535, 65535, 65535, 65535, 65535, 65535, 65535, 65535, 65535, 65535, 65535, 65535, 65535, 65535, 65535, 65535, 65535, 65535, 65535, 65535, 65535, 65535, 65535, 65535, 65535, 65535, 65535, 65535, 65535, 65535, 65535, 65535, 65535, 65535, 65535, 65535, 65535, 65535, 65535, 65535, 65535, 65535, 65535, 65535, 0, 0, 0, 0, 0,
       65535, 65535, 65535, 65535, 65535, 65535, 65535, 65535, 65535, 65535, 65535, 65535, 65535, 65535, 65535, 65535, 65535, 65535, 65535, 65535, 65535, 65535, 65280, 65535, 65535, 65535, 65535, 65535, 65535, 65535, 65535, 65535, 65535, 65535, 65535, 65535, 65535, 65535, 65535, 65535, 65535, 65535, 65535, 65535, 65535, 65535, 65535, 65535, 65535, 65535, 65535, 65535, 65535, 65535, 0, 0, 65535, 65535, 65535, 65535, 65535, 65535, 65535, 65535, 65535, 65535, 65535, 65535, 65535, 65535, 65535, 65535, 65535, 65535, 65535, 65535, 65535, 65535, 65535, 65535, 65535, 65535, 65535, 65535, 65535, 65535, 65535, 65535, 65535, 65535, 65535, 65535, 65535, 65535, 65535, 65535, 65535, 65535, 65535, 65535, 65535, 65535, 65535, 65535, 65535, 65535, 65535, 0, 0, 0, 0, 0, 0, 0, 0, 0, 0, 0, 0, 0, 0, 0, 0, 0, 0, 0, 0, 0, 0, 65535, 65535, 0, 0, 0, 0, 0, 0, 0, 0, 0, 0, 0, 0, 0, 0, 0, 0, 0, 0, 0, 0, 0, 0, 0, 0, 0, 0, 0, 0, 0, 0, 0, 0, 0, 0, 0, 0, 0, 0, 0, 0, 0, 0, 0, 0, 0, 0, 0, 0, 0, 0, 0, 0, 0, 0, 0, 0, 0, 0, 0, 0, 0, 0, 0, 0, 0, 0, 0, 0, 0, 0, 0, 0, 0, 0, 0, 0, 65535, 0, 0, 0, 0, 0, 65535, 65535, 65535, 65535, 65535, 65535, 65535, 65535, 65535, 65535, 65535, 65535, 65535, 65535, 65535, 65535, 65535, 65535, 65535, 65535, 65535, 65535, 65535, 65535, 65535, 65535, 65535, 65535, 65535, 65535, 65535, 65535, 65535, 65535, 65535, 65535, 65535, 65535, 65535, 65535, 65535, 65535, 65535, 65535, 65535, 65535, 65535, 65535, 65535, 65535, 65535, 65535, 65535, 65535, 65535, 65535, 65535, 65535, 65535, 65535, 65535, 65535, 65535, 65535, 65535, 65535, 65535, 65535, 65535, 65535, 65535, 65535, 65535, 65535, 65535, 65535, 65535, 65535, 65535, 65535, 65535, 65535, 65535, 65535, 65535, 65535, 65535, 65535, 65535, 65535, 65535, 65535, 65535, 65535, 65535, 65535, 65535, 65535, 65535, 65535, 65535, 0, 0, 0, 0, 0, 0,
       65535, 65535, 65535, 65535, 65535, 65535, 65535, 65535, 65535, 65535, 65535, 65535, 65535, 65535, 65535, 65535, 65535, 65535, 65535, 65535, 65535, 65535, 65280, 65535, 64896, 64896, 65535, 0, 65535, 65535, 65535, 65535, 65535, 65535, 65535, 65535, 65535, 65535, 65535, 65535, 65535, 65535, 65535, 65535, 65535, 65535, 65535, 65535, 65535, 65535, 65535, 65535, 65535, 65535, 65535, 0, 65535, 65535, 65535, 65535, 65535, 65535, 65535, 65535, 65535, 65535, 65535, 65535, 65535, 65535, 65535, 65535, 65535, 65535, 65535, 65535, 65535, 65535, 65535, 65535, 65535, 65535, 65535, 65535, 65535, 65535, 65535, 65535, 65535, 65535, 65535, 65535, 65535, 65535, 65535, 65535, 65535, 65535, 0, 0, 0, 0, 0, 0, 0, 0, 0, 0, 0, 0, 0, 0, 0, 0, 0, 0, 0, 0, 0, 0, 0, 0, 0, 0, 0, 0, 0, 0, 0, 0, 0, 0, 0, 0, 0, 0, 0, 0, 0, 0, 0, 0, 0, 0, 0, 0, 0, 0, 0, 0, 0, 0, 0, 0, 0, 0, 0, 0, 0, 0, 0, 0, 0, 0, 0, 0, 0, 0, 0, 0, 0, 0, 0, 0, 0, 0, 0, 0, 0, 0, 0, 0, 0, 0, 0, 0, 0, 0, 0, 0, 0, 0, 0, 0, 0, 0, 0, 0, 0, 0, 0, 0, 0, 0, 0, 0, 0, 65535, 0, 0, 0, 0, 0, 0, 0, 0, 65535, 65535, 65535, 65535, 65535, 65535, 65535, 65535, 65535, 65535, 65535, 65535, 65535, 65535, 65535, 65535, 65535, 65535, 65535, 65535, 65535, 65535, 65535, 65535, 65535, 65535, 65535, 65535, 65535, 65535, 65535, 65535, 65535, 65535, 65535, 65535, 65535, 65535, 65535, 65535, 65535, 65535, 65535, 65535, 65535, 65535, 65535, 65535, 65535, 65535, 65535, 65535, 65535, 65535, 65535, 65535, 65535, 65535, 65535, 65535, 65535, 65535, 65535, 65535, 65535, 65535, 65535, 65535, 65535, 65535, 65535, 65535, 65535, 65535, 65535, 65535, 65535, 65535, 65535, 65535, 65535, 65535, 65535, 65535, 65535, 65535, 65535, 65535, 65535, 65535, 65535, 65535, 65535, 65535, 65535, 65535, 65535, 65535, 65535, 65535, 0, 0, 0, 0,
       0, 65535, 65535, 65535, 65535, 65535, 65535, 65535, 65535, 65535, 65280, 65535, 65535, 65535, 65535, 65535, 65535, 65535, 65535, 65535, 65535, 65535, 65535, 65535, 65280, 65535, 0, 0, 0, 65535, 65535, 65535, 65535, 65535, 65535, 65535, 65535, 65535, 65535, 65535, 65535, 65535, 65535, 65535, 65535, 65535, 65535, 65535, 65535, 65535, 65535, 65535, 65535, 65535, 65535, 64512, 64512, 65535, 65535, 65535, 65535, 65535, 65535, 65535, 64160, 64160, 65535, 65535, 65535, 65535, 65535, 65535, 65535, 65535, 65535, 65535, 65535, 65535, 65535, 65535, 65535, 65535, 65535, 65535, 65535, 65535, 65535, 65535, 65535, 65535, 65535, 65535, 65535, 65535, 65535, 65535, 65535, 65535, 0, 0, 0, 0, 0, 0, 0, 0, 0, 0, 0, 0, 0, 0, 0, 0, 0, 0, 0, 0, 0, 0, 0, 0, 0, 0, 0, 0, 0, 0, 0, 0, 0, 0, 0, 0, 0, 0, 0, 0, 0, 0, 0, 0, 0, 0, 0, 0, 0, 0, 0, 0, 0, 0, 0, 0, 0, 0, 0, 0, 0, 0, 0, 0, 0, 0, 0, 0, 0, 0, 0, 0, 0, 0, 0, 0, 0, 0, 0, 0, 0, 0, 0, 0, 0, 0, 0, 0, 0, 0, 0, 0, 0, 0, 0, 0, 0, 0, 0, 0, 0, 0, 0, 0, 0, 0, 0, 0, 0, 0, 0, 0, 0, 0, 0, 0, 0, 0, 0, 65535, 65535, 65535, 65535, 65535, 65535, 65535, 65535, 65535, 65535, 65535, 65535, 65535, 65535, 65535, 65535, 65535, 65535, 65535, 65535, 65535, 65535, 65535, 65535, 65535, 65535, 65535, 65535, 65535, 65535, 65535, 65535, 0, 65535, 65535, 65535, 65535, 65535, 65535, 65535, 65535, 65535, 65535, 65535, 65535, 65535, 65535, 65535, 65535, 65535, 65535, 65535, 65535, 65535, 65535, 65535, 65535, 65535, 65535, 65535, 65535, 65535, 65535, 65535, 65535, 65535, 65535, 65535, 65535, 65535, 65535, 65535, 65535, 65535, 65535, 65535, 65535, 65535, 65535, 65535, 65535, 65535, 65535, 65535, 65535, 65535, 65535, 65535, 65535, 65535, 65535, 65535, 65535, 65535, 65535, 65535, 65535, 65535, 65535, 0, 0, 0, 0,
       0, 63040, 63776, 64512, 64896, 64896, 64896, 62688, 62688, 63040, 65535, 65535, 65280, 65535, 65535, 65535, 65535, 65535, 65535, 63392, 63776, 65280, 64896, 64896, 64896, 0, 0, 0, 0, 0, 65280, 63776, 63776, 64160, 64160, 63776, 63776, 65535, 65535, 65535, 65535, 64896, 64896, 63776, 63040, 63040, 63040, 64896, 65535, 65535, 65280, 65280, 65535, 64896, 64512, 64512, 64512, 65280, 65535, 65535, 65535, 65535, 65535, 65535, 64160, 64160, 64160, 62688, 62688, 65535, 65535, 64896, 65535, 63776, 63776, 65535, 65535, 65535, 65280, 65535, 65280, 65280, 63392, 61952, 65535, 65535, 65535, 65535, 65535, 64896, 64896, 64512, 64896, 65535, 65535, 65535, 65535, 65535, 0, 0, 0, 0, 0, 0, 0, 0, 0, 0, 0, 0, 0, 0, 0, 0, 0, 0, 0, 0, 0, 0, 0, 0, 0, 0, 0, 0, 0, 0, 0, 0, 0, 0, 0, 0, 0, 0, 0, 0, 0, 0, 0, 0, 0, 0, 0, 0, 0, 0, 0, 0, 0, 0, 0, 0, 0, 0, 0, 0, 0, 0, 0, 0, 0, 0, 0, 0, 0, 0, 0, 0, 0, 0, 0, 0, 0, 0, 0, 0, 0, 0, 0, 0, 0, 0, 0, 0, 0, 0, 0, 0, 0, 0, 0, 0, 0, 0, 0, 0, 0, 0, 0, 0, 0, 0, 0, 0, 0, 0, 0, 0, 0, 0, 0, 0, 0, 0, 0, 0, 0, 65535, 65535, 65535, 65535, 65535, 65535, 65535, 65535, 65535, 65535, 65535, 65535, 65535, 65535, 65535, 65535, 65535, 65535, 65535, 65535, 65535, 65535, 65535, 65535, 65535, 65535, 65535, 65535, 65535, 65535, 65535, 65535, 63040, 65535, 65535, 65535, 65535, 65535, 65535, 65535, 65535, 65535, 65535, 65535, 65535, 65535, 65535, 65535, 65535, 65535, 65535, 65535, 65535, 65535, 65535, 65535, 65535, 65535, 65535, 65535, 65535, 65535, 65535, 65535, 65535, 65535, 65535, 65535, 65535, 65535, 65535, 65535, 65535, 65535, 65535, 65535, 65535, 65535, 65535, 65535, 65535, 65535, 65535, 65535, 65535, 65535, 65535, 65535, 65535, 65535, 65535, 65535, 65535, 65535, 65535, 65535, 65535, 0, 0, 0, 0,
       61632, 61952, 62304, 61952, 61632, 61952, 62304, 62304, 62304, 61952, 61952, 61952, 59616, 65535, 65535, 65535, 65280, 65280, 62304, 62304, 62688, 63392, 62304, 63392, 63392, 0, 0, 0, 0, 63392, 63392, 63392, 63392, 63776, 63392, 62688, 62688, 62304, 62304, 63040, 63040, 63040, 63392, 62688, 62304, 62688, 61952, 63392, 63392, 63392, 64160, 63776, 63392, 63040, 63040, 62688, 63040, 64160, 64160, 60928, 61280, 61632, 61632, 63040, 63040, 63392, 62688, 62688, 62688, 61952, 63040, 62688, 62688, 62688, 61952, 62688, 62688, 63776, 63776, 63392, 63776, 63392, 63392, 61952, 61952, 61952, 65535, 65535, 64512, 63392, 63392, 63392, 64160, 64896, 65535, 65535, 65535, 0, 65535, 0, 0, 0, 0, 0, 0, 0, 0, 0, 0, 0, 0, 0, 0, 0, 0, 0, 0, 0, 0, 0, 0, 0, 0, 0, 0, 0, 0, 0, 0, 0, 0, 0, 0, 0, 0, 0, 0, 0, 0, 0, 61952, 0, 0, 0, 0, 0, 0, 0, 0, 0, 0, 0, 0, 0, 0, 0, 0, 0, 0, 0, 0, 0, 0, 0, 0, 0, 0, 0, 0, 0, 0, 0, 0, 64160, 63392, 63392, 63392, 64160, 64512, 64512, 64160, 64160, 63776, 63392, 64512, 64512, 64512, 64512, 64512, 0, 0, 0, 0, 0, 0, 0, 0, 0, 0, 0, 63040, 0, 0, 0, 0, 0, 0, 0, 0, 0, 0, 0, 0, 0, 0, 0, 0, 0, 0, 0, 0, 65535, 65535, 65535, 65535, 65535, 65535, 65535, 65535, 65535, 65535, 65535, 65535, 65535, 65535, 65535, 65535, 65535, 65535, 65535, 65535, 65535, 65535, 65535, 65535, 65535, 65535, 65535, 65535, 65535, 65535, 63040, 65535, 65535, 65535, 65535, 65535, 65535, 65535, 65535, 65535, 65535, 65535, 65535, 65535, 65535, 65535, 65535, 65535, 63392, 63392, 65535, 65535, 65535, 65535, 65535, 65535, 65535, 65535, 65535, 65535, 65535, 65535, 65535, 65535, 65535, 65535, 65535, 65535, 65535, 65535, 65535, 65535, 65535, 65535, 65535, 65535, 65535, 65535, 65535, 65535, 65535, 65535, 65535, 65535, 65535, 65535, 65535, 65535, 65535, 65535, 65535, 65535, 65535, 65535, 0, 0, 0, 0, 0,
       60608, 59616, 59936, 59936, 60256, 60256, 0, 61952, 61632, 61632, 60928, 59616, 59616, 59616, 59616, 62304, 61952, 61952, 61952, 61952, 61952, 61632, 60928, 60928, 61280, 0, 0, 0, 0, 0, 0, 61280, 61280, 63040, 61952, 61632, 61632, 60928, 60256, 60256, 62304, 62688, 62304, 61952, 61632, 61632, 61952, 63392, 0, 0, 58976, 61952, 61952, 61952, 61952, 61632, 61632, 61632, 60928, 60928, 61280, 61632, 61632, 61952, 61952, 62304, 62688, 62688, 62688, 62304, 62304, 61952, 61952, 61632, 61632, 61280, 61632, 61632, 61952, 61952, 63392, 63392, 63040, 61632, 61280, 61280, 61632, 63040, 62688, 61952, 61952, 62304, 62304, 62304, 65535, 65535, 0, 0, 0, 0, 0, 0, 0, 0, 0, 0, 0, 0, 0, 0, 0, 0, 0, 0, 0, 0, 0, 0, 0, 0, 0, 0, 0, 0, 0, 0, 0, 0, 0, 0, 0, 0, 0, 0, 0, 0, 0, 59296, 59616, 59616, 59616, 0, 0, 0, 0, 0, 0, 0, 0, 0, 0, 0, 0, 0, 0, 0, 0, 0, 0, 0, 0, 0, 0, 0, 0, 0, 0, 0, 0, 0, 0, 0, 0, 64160, 64160, 64160, 63776, 63776, 64160, 64160, 64160, 64160, 63776, 63392, 63392, 63776, 64160, 64512, 63776, 0, 62304, 61632, 61632, 0, 60928, 60256, 60608, 62688, 62304, 62304, 62304, 60256, 0, 0, 0, 0, 0, 0, 0, 0, 0, 0, 0, 0, 0, 0, 0, 0, 0, 0, 0, 59616, 0, 56832, 56832, 56832, 65535, 65535, 65535, 65535, 65535, 65535, 61632, 62304, 62304, 62688, 63392, 65535, 65535, 64512, 64896, 64512, 64896, 64512, 64160, 65535, 65535, 65535, 65535, 65280, 64896, 63776, 65535, 65535, 65535, 65535, 65535, 64512, 65535, 65280, 65280, 65280, 65535, 65535, 65535, 65535, 64896, 64160, 63776, 63392, 63392, 64512, 65535, 65535, 63040, 62688, 65535, 65535, 65535, 65535, 65280, 65280, 65280, 65535, 65535, 65535, 65535, 65280, 64160, 64512, 64896, 64896, 65280, 65280, 64896, 64512, 63392, 63392, 63392, 64896, 64896, 64896, 64160, 63040, 63040, 65535, 65535, 65535, 60256, 65535, 65535, 65535, 64160, 64160, 64160, 63776, 0, 0, 0, 0,
       59616, 59296, 58976, 58656, 58976, 0, 58976, 60256, 60256, 59936, 59936, 58976, 58976, 0, 0, 0, 62304, 61952, 61952, 61952, 53472, 53472, 53760, 53760, 53760, 0, 0, 0, 0, 0, 0, 59936, 59936, 60928, 60928, 56512, 59616, 59616, 59616, 59616, 58016, 58016, 61632, 61632, 61632, 61632, 61632, 61632, 58976, 58976, 58976, 59296, 59616, 59936, 60608, 60608, 60608, 58976, 60256, 60256, 60928, 61280, 61280, 61632, 61632, 61632, 63040, 63040, 63040, 60928, 60928, 61632, 61280, 61280, 60928, 60608, 60608, 60608, 59296, 59296, 59296, 59296, 57728, 60928, 60928, 60256, 60608, 60608, 60608, 60608, 0, 0, 0, 0, 0, 0, 0, 0, 0, 0, 0, 0, 0, 0, 58016, 57120, 0, 0, 0, 0, 0, 0, 0, 0, 0, 0, 0, 0, 0, 0, 0, 0, 0, 0, 0, 0, 0, 0, 59936, 59616, 58336, 0, 0, 57728, 0, 59296, 59936, 58976, 58656, 58336, 58656, 58336, 0, 0, 0, 0, 0, 0, 0, 0, 0, 0, 0, 0, 0, 0, 0, 0, 0, 0, 0, 0, 0, 0, 0, 0, 0, 0, 0, 0, 0, 0, 0, 0, 63040, 63040, 63040, 63040, 56512, 56512, 55936, 56224, 58656, 58656, 64160, 64160, 64160, 64160, 63392, 62688, 61952, 61632, 61280, 59616, 60256, 59936, 59936, 62688, 62688, 62688, 62688, 62688, 0, 0, 0, 0, 0, 0, 0, 0, 0, 0, 0, 0, 0, 0, 60608, 59936, 59936, 59296, 0, 59616, 59616, 58016, 56832, 56832, 56832, 56832, 63776, 63776, 63776, 62688, 61632, 61952, 62304, 62304, 63040, 63392, 63392, 63392, 63392, 63392, 63776, 63776, 63776, 64512, 64512, 65535, 65535, 64160, 63392, 63040, 63040, 62688, 62688, 62304, 61952, 61952, 61952, 61952, 64160, 64160, 64160, 61632, 64512, 64512, 64160, 63040, 63040, 62688, 63040, 63392, 63392, 63040, 63040, 62688, 62688, 62688, 63040, 65280, 64896, 64896, 65280, 65280, 65535, 65280, 64512, 64160, 63392, 63040, 63040, 63776, 64896, 63776, 63040, 63040, 62304, 62304, 0, 0, 64160, 64160, 63040, 62688, 62688, 62304, 62688, 62304, 60256, 60256, 60928, 64160, 64160, 63776, 63776, 63776, 0, 0, 0, 0,
       0, 58336, 58656, 58336, 0, 58336, 0, 59296, 59296, 59296, 59296, 59296, 59296, 54016, 54016, 54016, 62304, 62304, 62304, 62304, 54816, 53760, 53760, 53760, 0, 0, 0, 0, 0, 0, 0, 55648, 56832, 56832, 56832, 56512, 55936, 59296, 58976, 59296, 58336, 58336, 58016, 58336, 60928, 60928, 60928, 0, 0, 58976, 58976, 59296, 59296, 59296, 59616, 59616, 58976, 58976, 58976, 59296, 59296, 59296, 51968, 51968, 51968, 52704, 52704, 53472, 53472, 53472, 58976, 58976, 59296, 57120, 56832, 57408, 57728, 58656, 58976, 58656, 58656, 58336, 57728, 57728, 57728, 57120, 55936, 60256, 60256, 0, 0, 0, 0, 0, 0, 55392, 55392, 55392, 0, 0, 0, 55936, 55648, 56832, 57120, 56832, 0, 56832, 56832, 0, 0, 0, 55936, 55936, 56512, 56832, 57728, 57408, 0, 0, 0, 0, 56512, 56224, 56224, 56832, 56832, 56832, 56832, 58336, 58336, 57728, 58016, 57728, 58016, 58016, 58016, 58976, 58976, 58656, 58656, 58016, 0, 0, 0, 0, 0, 0, 0, 0, 0, 0, 0, 0, 0, 0, 0, 0, 0, 0, 0, 0, 0, 0, 0, 55648, 55392, 57120, 57408, 57728, 57728, 0, 0, 0, 0, 55648, 64160, 56512, 56512, 56512, 55936, 56224, 56224, 58656, 58656, 58336, 58016, 58016, 58016, 60928, 60928, 60928, 60256, 59296, 59936, 59616, 59616, 59616, 62304, 62304, 62304, 57728, 58016, 57728, 0, 0, 0, 0, 0, 0, 0, 0, 0, 0, 0, 0, 59296, 58976, 59936, 59296, 59296, 59616, 59616, 0, 58016, 56832, 56832, 0, 0, 61632, 61632, 61632, 61280, 61280, 61632, 62304, 62304, 62688, 62688, 62688, 62688, 63040, 63040, 63040, 63040, 63040, 59616, 59616, 59296, 60256, 60256, 60256, 60256, 60256, 60256, 61280, 61280, 61632, 61280, 61280, 60928, 60256, 60928, 60608, 60928, 61632, 61952, 62304, 62304, 61952, 61632, 62304, 60608, 62304, 62304, 61952, 62304, 62304, 62304, 62304, 58656, 58656, 58336, 58656, 58656, 58656, 60256, 60928, 61280, 61632, 61952, 63040, 62688, 63040, 61632, 61632, 61632, 61632, 58656, 0, 61952, 61952, 61280, 61632, 61632, 61632, 61632, 61632, 60928, 60928, 60928, 60928, 60928, 63392, 63392, 63392, 0, 0, 0, 0,
       0, 0, 58656, 0, 0, 0, 0, 0, 0, 0, 0, 52224, 53216, 0, 54016, 54016, 62304, 62304, 65280, 65280, 54016, 53760, 54560, 54560, 54560, 54816, 54560, 54560, 54272, 54272, 55392, 55648, 55936, 55392, 55392, 55648, 55104, 54816, 57728, 57408, 57408, 57728, 58016, 58016, 61280, 61280, 0, 0, 0, 58336, 58336, 58336, 58656, 58976, 58976, 58976, 58976, 50752, 50048, 50048, 50048, 0, 0, 51968, 51968, 52704, 52704, 53472, 53472, 53472, 53760, 54560, 54816, 55936, 56224, 56224, 54560, 54816, 54816, 54816, 54816, 57408, 57408, 57728, 57728, 57120, 55936, 0, 0, 0, 0, 0, 0, 55104, 55104, 55392, 55392, 55392, 55648, 55392, 55392, 55392, 55648, 55936, 55648, 55648, 55648, 56224, 56512, 55936, 55936, 55648, 55648, 55936, 56224, 55936, 55936, 56512, 55648, 0, 56224, 56224, 56512, 56224, 56224, 56224, 56512, 56224, 56224, 55392, 55392, 55648, 55648, 57408, 56512, 55936, 55936, 55936, 55936, 56832, 56832, 57120, 0, 0, 0, 0, 0, 0, 0, 0, 0, 0, 0, 0, 0, 0, 0, 0, 0, 0, 0, 56512, 56224, 55936, 55648, 55648, 55648, 56224, 56512, 56512, 56832, 0, 0, 55648, 0, 55648, 64160, 64160, 56224, 55648, 55936, 56224, 56224, 57408, 57408, 57408, 56512, 56224, 55648, 55648, 58656, 59616, 58976, 56832, 56512, 56512, 56512, 56512, 56512, 55648, 56224, 57408, 57408, 57728, 57408, 57408, 57408, 57728, 0, 0, 0, 0, 0, 56512, 56512, 56512, 56832, 58656, 58976, 58976, 58976, 59616, 58656, 59296, 58976, 56512, 56512, 55648, 55648, 55648, 0, 0, 61280, 61280, 61280, 61280, 58656, 58656, 58016, 58656, 58336, 58336, 58336, 57408, 57408, 59616, 59616, 59296, 58976, 59296, 58976, 58976, 59296, 58656, 58656, 58656, 58976, 59296, 60256, 60256, 59936, 59936, 60608, 59936, 58976, 58976, 58976, 58976, 61280, 61280, 60608, 59936, 59616, 59616, 61632, 61632, 61952, 61280, 61280, 58656, 58656, 58336, 58336, 58336, 58336, 58016, 59616, 59936, 59936, 60608, 60608, 60608, 60608, 55648, 56832, 58656, 58656, 58656, 58656, 56512, 60256, 60256, 59936, 60608, 60928, 60608, 60608, 59936, 60608, 60256, 60256, 60256, 59936, 59616, 60608, 61280, 0, 0, 0, 0,
       0, 0, 0, 0, 0, 0, 0, 0, 52224, 52224, 52448, 52224, 53216, 51968, 52448, 52224, 52448, 52448, 52224, 65535, 53472, 53472, 53760, 53472, 54272, 54272, 54016, 54016, 53760, 54272, 55104, 55104, 55392, 54560, 54016, 54816, 54560, 54560, 56512, 57120, 57120, 57120, 61952, 61952, 61952, 50528, 50528, 50528, 0, 0, 0, 51008, 51008, 50048, 50304, 50752, 50752, 50752, 50048, 0, 50048, 51488, 51488, 51968, 51968, 52960, 52704, 53472, 53472, 53472, 53472, 53472, 54016, 54016, 54560, 54560, 54560, 54816, 54816, 54816, 54816, 54272, 54272, 56512, 56512, 55936, 55648, 55648, 0, 0, 0, 0, 0, 54560, 54560, 54560, 54560, 54272, 53760, 54016, 53760, 54272, 54272, 54560, 54560, 54560, 54560, 54272, 54560, 54560, 54560, 55392, 54816, 54560, 55936, 55648, 55392, 55104, 55104, 54560, 54816, 54816, 55104, 55392, 55648, 55392, 55104, 55648, 54816, 54560, 54560, 54560, 54816, 55392, 55392, 55104, 55104, 54816, 54816, 54560, 54560, 55392, 55104, 55392, 0, 0, 0, 0, 0, 0, 0, 0, 0, 0, 0, 0, 0, 0, 0, 0, 0, 55648, 55648, 55392, 55104, 55104, 54816, 55104, 55648, 55648, 55936, 55648, 55392, 55648, 55648, 55648, 55936, 56224, 55648, 55648, 55936, 55936, 55936, 56224, 55936, 57408, 57408, 56512, 55648, 55392, 55392, 55392, 56224, 56224, 56224, 55936, 55936, 55936, 55648, 55648, 56224, 56224, 57120, 57120, 56832, 57120, 56512, 56224, 55648, 0, 0, 0, 0, 56224, 56224, 56512, 56224, 56512, 55936, 55936, 55936, 55648, 55648, 55648, 55648, 55648, 55648, 55648, 55648, 55648, 55936, 55936, 55392, 55392, 58016, 58016, 58016, 57728, 57408, 58016, 58016, 57728, 58336, 57408, 57408, 56224, 56224, 56224, 58976, 58656, 58656, 58656, 58656, 57408, 58016, 57728, 58016, 58656, 58336, 58976, 58656, 58656, 56512, 58016, 58016, 58336, 58336, 58016, 58336, 56832, 56832, 57408, 57120, 57120, 57120, 57120, 54272, 57728, 57728, 57728, 58016, 58016, 58336, 58016, 57728, 57408, 56224, 59296, 59296, 55104, 53216, 53216, 55648, 55648, 56832, 55936, 56224, 56512, 56512, 56512, 57408, 58016, 58336, 58016, 57728, 57728, 57728, 57728, 58016, 57408, 59296, 59296, 59296, 58976, 58656, 58656, 0, 0, 0, 0,
       0, 0, 0, 0, 0, 0, 0, 51488, 51712, 51712, 51712, 51488, 51488, 51712, 51712, 51712, 51712, 51712, 51712, 51712, 51712, 51968, 52224, 52960, 52704, 52960, 53216, 52960, 53216, 53216, 53216, 53216, 53760, 53760, 54016, 54272, 54016, 54272, 54272, 48736, 48736, 50304, 50304, 50304, 50304, 50528, 50528, 50528, 50528, 50528, 50752, 51008, 51008, 0, 50304, 50752, 50752, 50752, 50048, 50048, 50048, 51488, 51488, 51712, 51712, 52224, 52224, 52448, 52704, 52448, 52704, 52704, 52960, 53216, 53760, 54016, 54272, 54560, 54560, 54560, 54560, 54016, 54016, 54016, 49600, 49600, 0, 0, 0, 0, 0, 0, 0, 52704, 52704, 53216, 53472, 53472, 53472, 53760, 53472, 53472, 53760, 54272, 54560, 54272, 54272, 53760, 53760, 54272, 54272, 54272, 53760, 53760, 53760, 55392, 55104, 55104, 54816, 53216, 53472, 53472, 54272, 54560, 54560, 54560, 54272, 54016, 54016, 54016, 54016, 53472, 54016, 54272, 54560, 54560, 54560, 54272, 54272, 54272, 54560, 54560, 0, 0, 0, 0, 0, 0, 0, 0, 0, 0, 0, 0, 0, 0, 0, 0, 0, 0, 0, 0, 54816, 54816, 54816, 54560, 54560, 54560, 55104, 55104, 54816, 54816, 54816, 55104, 55104, 55104, 55104, 55104, 55104, 54816, 54816, 55104, 55392, 55392, 55392, 55104, 54560, 54272, 54272, 54272, 54016, 54272, 54272, 55648, 55648, 55648, 55392, 55392, 55104, 54816, 55104, 55104, 55104, 55104, 52448, 55648, 55648, 55648, 55104, 0, 55936, 55392, 55104, 55104, 54816, 54816, 55392, 55648, 55392, 55392, 55104, 54560, 54816, 55104, 55392, 55392, 55392, 55104, 55104, 55392, 55392, 55392, 55392, 0, 0, 57120, 57120, 57120, 56832, 56512, 57408, 57408, 57120, 57120, 55936, 55648, 55392, 55104, 54816, 54560, 55648, 56224, 56224, 55936, 55648, 55648, 57120, 57728, 57408, 57728, 57408, 56832, 56512, 56512, 56832, 57408, 57728, 57120, 57408, 56512, 56512, 56832, 56512, 56512, 56512, 54272, 54272, 54560, 57120, 57120, 57728, 57728, 58016, 57728, 57120, 55648, 55648, 55392, 55104, 55104, 53216, 53216, 55648, 55648, 56832, 55936, 56224, 55936, 55936, 55936, 56512, 57408, 57408, 57408, 57120, 57120, 57120, 57408, 57120, 56512, 56832, 56832, 58016, 58336, 58016, 56512, 0, 0, 0, 0,
       0, 0, 0, 0, 48928, 48928, 0, 49600, 50304, 50528, 50752, 50752, 50752, 51232, 51712, 51712, 51712, 51488, 51488, 51232, 51488, 51712, 51712, 52224, 51968, 51712, 52704, 52448, 52704, 52704, 52704, 0, 55104, 53472, 53472, 54016, 54016, 54016, 47872, 48736, 48736, 50304, 50304, 49600, 50048, 50048, 50528, 50752, 50528, 50528, 50528, 50048, 50048, 50048, 50304, 50528, 50304, 49824, 50048, 50048, 50528, 50752, 50752, 51232, 51488, 51712, 51712, 51712, 51712, 51712, 51968, 52224, 51968, 52448, 52448, 52960, 53216, 50048, 50048, 53472, 53472, 52448, 52448, 49600, 49600, 49600, 49600, 50048, 0, 0, 0, 0, 0, 0, 52704, 52960, 52960, 53216, 53216, 53216, 52960, 52704, 52704, 52704, 48928, 47648, 51968, 51968, 51712, 51488, 51712, 51712, 51968, 52224, 52224, 55104, 55104, 52960, 52960, 52224, 51712, 52448, 54016, 54272, 54016, 54016, 53216, 53472, 53472, 52704, 52960, 52960, 52960, 53472, 54016, 54016, 54016, 52448, 54272, 54272, 54272, 54272, 0, 0, 0, 0, 0, 0, 0, 0, 0, 0, 0, 0, 0, 0, 0, 0, 0, 0, 0, 0, 0, 54016, 54016, 54272, 54272, 54560, 54560, 54560, 54272, 54272, 54272, 52224, 52224, 52224, 51712, 54272, 54272, 53472, 53216, 53216, 53216, 55104, 55104, 55104, 54016, 53760, 53760, 53472, 53472, 53216, 52960, 52960, 52960, 51968, 51712, 55104, 55104, 54816, 53216, 52960, 52448, 52448, 52448, 52224, 54272, 54272, 54272, 54272, 55392, 55392, 54560, 54560, 54272, 54272, 54560, 55104, 55104, 55392, 54816, 54016, 54016, 54272, 54816, 55104, 55104, 55104, 55104, 55392, 55104, 55104, 55104, 0, 0, 55392, 55392, 55392, 55648, 56224, 55648, 56832, 53472, 53472, 54560, 55104, 55104, 54816, 54560, 54272, 54272, 54272, 54816, 55104, 55104, 54816, 54816, 54816, 54272, 57728, 57120, 56224, 55936, 55936, 55648, 55392, 55104, 55104, 55104, 54272, 55392, 55392, 55936, 56224, 56224, 54272, 54272, 54560, 54816, 55104, 55104, 53216, 53216, 53216, 53216, 54560, 55104, 54272, 54272, 54016, 53472, 54272, 54272, 54560, 54816, 54816, 55104, 55104, 55104, 55104, 54816, 54560, 54816, 55104, 55104, 55104, 55104, 55104, 56512, 55648, 55648, 55648, 54816, 57728, 55936, 55936, 0, 0, 0, 0,
       0, 0, 0, 0, 0, 0, 48096, 49376, 49824, 50048, 50528, 50304, 50304, 50528, 50528, 46464, 46656, 51488, 51232, 51232, 51232, 51488, 51232, 51712, 51488, 50752, 50752, 50752, 52448, 52448, 52448, 55104, 55104, 55104, 47648, 47872, 48096, 47872, 47872, 47872, 47648, 47872, 47872, 49600, 49600, 49376, 50304, 50528, 50304, 50304, 48928, 48928, 48736, 48736, 48736, 49600, 49376, 49152, 49376, 49600, 49824, 50048, 50304, 50528, 51008, 51488, 51488, 51232, 51232, 51232, 51232, 51488, 51008, 51008, 51232, 51232, 51008, 50048, 50048, 50528, 51008, 51712, 51712, 49600, 49152, 49376, 49376, 49600, 48928, 48928, 0, 0, 0, 48736, 48288, 48512, 48512, 52448, 52448, 48512, 48512, 48288, 48928, 48928, 48928, 47648, 47648, 47648, 47648, 50048, 49824, 49824, 52224, 52448, 52448, 52448, 48288, 48288, 52224, 52224, 52224, 52224, 48096, 48288, 48512, 48512, 48512, 47648, 51008, 51008, 52448, 52448, 52704, 52960, 52960, 52704, 52448, 52448, 0, 54560, 54560, 0, 0, 0, 0, 0, 0, 0, 0, 0, 0, 0, 0, 0, 0, 0, 0, 0, 0, 0, 0, 0, 0, 0, 0, 46848, 0, 47648, 0, 0, 47648, 47648, 51968, 51968, 51968, 51712, 51712, 51968, 51968, 50528, 50528, 47872, 47648, 47648, 48096, 53472, 53472, 53472, 53472, 53216, 53216, 52960, 52704, 52448, 51968, 51968, 51712, 51712, 51232, 52448, 52448, 52224, 52224, 51968, 51968, 52224, 52224, 51232, 51968, 51968, 51968, 51232, 52960, 53472, 54016, 54272, 54560, 55104, 55104, 55104, 51968, 51968, 51968, 51968, 52224, 52224, 54016, 54016, 53760, 53216, 52960, 0, 51488, 51232, 51008, 0, 54272, 54272, 54560, 54560, 50528, 52960, 52960, 52704, 52224, 54016, 54272, 54272, 54016, 53760, 53472, 53216, 53216, 54816, 54272, 54272, 54016, 53760, 53216, 52960, 52704, 52960, 52960, 53216, 53216, 52448, 53760, 54560, 54560, 53760, 53760, 52704, 52704, 52448, 52448, 52448, 53760, 54016, 54272, 54016, 53472, 53216, 52960, 52960, 53216, 53216, 53760, 53760, 53760, 53760, 53216, 54016, 53760, 54016, 54272, 53760, 54016, 54272, 54016, 54016, 54016, 53760, 54016, 54560, 54560, 54560, 54272, 54016, 54016, 54816, 54560, 54016, 54272, 54272, 54016, 55104, 0, 0, 0, 0,
       43488, 43680, 0, 0, 0, 0, 47648, 47456, 50304, 50304, 50528, 50528, 50528, 45664, 46240, 46240, 46240, 46464, 51488, 51488, 51488, 51488, 51488, 51488, 50528, 50528, 50528, 50528, 45120, 46656, 46656, 55104, 55104, 54816, 46848, 47648, 47648, 47264, 47456, 47456, 47264, 47456, 47648, 47872, 47872, 47040, 47040, 50528, 50304, 50304, 47872, 48288, 48096, 48096, 48288, 48512, 48736, 48928, 48928, 48736, 48736, 48736, 49376, 49600, 50304, 51712, 51488, 51488, 51232, 50304, 51008, 50752, 50304, 49600, 49600, 49376, 49152, 49376, 49824, 50752, 50752, 50752, 47456, 48288, 48736, 48928, 48928, 48736, 48736, 48736, 48512, 48736, 48512, 48736, 48288, 48096, 48096, 47872, 48096, 48512, 48512, 48288, 48512, 48736, 48736, 47872, 47872, 47872, 47872, 49824, 49824, 50048, 49824, 49824, 48928, 48736, 48288, 48288, 48288, 48288, 47872, 48096, 48096, 48288, 48512, 48512, 48512, 47648, 51008, 51008, 51008, 48512, 48512, 48512, 47872, 47648, 47872, 48288, 47648, 47648, 0, 48512, 48512, 0, 0, 0, 0, 0, 0, 0, 0, 0, 0, 0, 0, 0, 0, 0, 0, 48512, 0, 0, 0, 46848, 0, 0, 0, 0, 47648, 47648, 47648, 0, 0, 50528, 50528, 50528, 51232, 51008, 50528, 50528, 48512, 47872, 47648, 47648, 48096, 48096, 0, 54272, 54272, 0, 0, 0, 49376, 50304, 50304, 50304, 51232, 51232, 51232, 51232, 51232, 51232, 51968, 51968, 51712, 51712, 51712, 51232, 51008, 51232, 51232, 50528, 50528, 50304, 50528, 50528, 54272, 54272, 48736, 48736, 51232, 51232, 51232, 51232, 51232, 51008, 51232, 51488, 51232, 52448, 52704, 51488, 51488, 51232, 51008, 50752, 50528, 50528, 50528, 50528, 50528, 52224, 52224, 52224, 51968, 51968, 52224, 51712, 51488, 51232, 51488, 52704, 52224, 52224, 52960, 53760, 53216, 52704, 52224, 52224, 52224, 52224, 51968, 52224, 52704, 52224, 52224, 52224, 51712, 52960, 52960, 52704, 52704, 52704, 52448, 52704, 52960, 53216, 53760, 53760, 51968, 51968, 52224, 52704, 52704, 52448, 52224, 52224, 52448, 52704, 52224, 52224, 51968, 51968, 53760, 52960, 52960, 53472, 51968, 53472, 53472, 53216, 53472, 53760, 53760, 52960, 51488, 52224, 52224, 52960, 53472, 53472, 54016, 54016, 53472, 52704, 0, 0, 0, 0,
       43840, 44032, 0, 0, 44192, 47456, 47456, 47456, 51712, 50048, 50048, 51008, 0, 45664, 45664, 45664, 45856, 45664, 45472, 45472, 45472, 44736, 44736, 44192, 44384, 45472, 45120, 45120, 0, 0, 46656, 46656, 46656, 46656, 46656, 46464, 46048, 46464, 47040, 47040, 47040, 47040, 47040, 45472, 46048, 46048, 46464, 46464, 46464, 46656, 47456, 47872, 47872, 47648, 47648, 47648, 48288, 48512, 48736, 48512, 48288, 48512, 48512, 48288, 47872, 47456, 47456, 47456, 48096, 48096, 47872, 47872, 48736, 48736, 49152, 49152, 48928, 49600, 49824, 50528, 46464, 46848, 47040, 47264, 48288, 48736, 48288, 48288, 48288, 48096, 47872, 47648, 47872, 47872, 47872, 47872, 47648, 47648, 47648, 47872, 47872, 48096, 48096, 48096, 47648, 47264, 47456, 47648, 47648, 47872, 48096, 47872, 47872, 47872, 47872, 47872, 47872, 47872, 47872, 47872, 47872, 48096, 48096, 48288, 48288, 47872, 47872, 47648, 47648, 47648, 48096, 47872, 48096, 47648, 47872, 47648, 47872, 48288, 47648, 47648, 48096, 48096, 48288, 48512, 0, 0, 0, 0, 0, 0, 0, 47872, 0, 47264, 0, 48736, 48512, 48288, 48288, 48288, 48288, 47456, 47456, 46848, 46848, 47456, 47040, 47264, 47648, 47648, 47648, 47872, 48512, 48512, 48512, 48288, 48288, 48512, 48512, 48512, 48512, 47872, 47648, 47648, 48096, 48096, 54560, 54560, 54560, 0, 0, 0, 49376, 49600, 50048, 50048, 50752, 51008, 51008, 50752, 50304, 50304, 50304, 50304, 50528, 50528, 50304, 50752, 50752, 50752, 50752, 50304, 50304, 50304, 50528, 50304, 50048, 50048, 48736, 48736, 48736, 51232, 51008, 51008, 50752, 50528, 50752, 50304, 51232, 49600, 49152, 51008, 51008, 51008, 50752, 50528, 50304, 50304, 50304, 50304, 49824, 49824, 49600, 49376, 51712, 51712, 51712, 51232, 51008, 51008, 50528, 50304, 51008, 51232, 51712, 51488, 51712, 51712, 51232, 51232, 51712, 51712, 51712, 51488, 51488, 51712, 51968, 51968, 51488, 51488, 50048, 50048, 51712, 51488, 51232, 51232, 51232, 48928, 48928, 49376, 50752, 50528, 50528, 50752, 51008, 51488, 51008, 51968, 50048, 49824, 49824, 49824, 50048, 50528, 50048, 50048, 50048, 49824, 49824, 49600, 51968, 51968, 51968, 51008, 50752, 50752, 50752, 51008, 50752, 50304, 50048, 49824, 49376, 49376, 51008, 51232, 0, 0, 0, 0,
       43840, 44032, 44032, 44192, 44192, 44032, 51712, 51712, 51712, 50752, 51008, 51008, 0, 45120, 45120, 45120, 44928, 45472, 45280, 45120, 45120, 44736, 44736, 44192, 44384, 45472, 45120, 45120, 0, 43680, 46656, 46656, 46240, 46048, 45664, 45120, 45120, 45472, 45664, 45664, 45664, 45472, 45472, 45472, 45280, 45856, 46048, 46240, 46240, 46240, 46464, 47040, 46848, 47040, 47264, 47264, 46656, 47040, 46240, 46656, 47456, 47040, 46656, 47456, 47456, 47040, 47264, 47040, 47040, 47648, 47648, 47872, 47872, 47872, 48512, 48512, 48512, 46656, 46048, 46048, 46240, 46464, 46848, 47040, 47040, 47040, 47264, 47456, 47456, 47648, 47264, 47264, 47456, 47264, 47456, 47456, 47456, 47648, 47456, 47648, 47456, 47456, 47456, 47040, 47040, 47040, 47040, 47264, 47456, 47456, 47264, 47040, 47040, 46656, 46656, 46656, 47872, 47648, 47648, 47648, 47456, 47456, 47264, 47264, 47456, 47648, 47456, 47456, 47648, 47456, 47648, 47872, 47648, 47872, 47872, 47648, 47648, 47264, 47264, 47264, 47456, 47648, 47456, 47872, 47648, 47456, 47264, 0, 47264, 47648, 47872, 47648, 47648, 47264, 47872, 47872, 47872, 48096, 47648, 47648, 47456, 47264, 47648, 47456, 47264, 47456, 47040, 47264, 47264, 47456, 47456, 47872, 48512, 48512, 48512, 48736, 48512, 48512, 48736, 48512, 48512, 47648, 47648, 47456, 47648, 47456, 47456, 0, 0, 47456, 0, 0, 0, 0, 47648, 0, 47648, 47648, 47648, 49824, 49824, 49824, 49600, 48512, 48512, 50048, 50048, 50304, 50048, 50048, 47456, 47456, 50048, 50048, 50304, 50304, 49824, 49824, 48512, 48736, 48736, 48736, 49600, 50048, 49824, 49824, 49600, 49152, 48928, 48736, 48512, 48512, 48512, 50752, 50752, 50304, 50304, 50048, 50048, 49824, 49376, 49376, 49152, 48736, 48512, 48288, 47872, 47456, 50528, 50528, 50304, 50304, 50752, 49600, 48736, 48288, 49376, 48928, 50048, 49824, 51232, 51008, 51008, 50752, 50048, 50048, 48512, 48512, 49600, 49600, 49600, 49600, 49600, 50048, 50304, 50752, 49152, 48928, 48928, 49152, 49600, 49600, 49600, 49824, 49600, 49376, 50528, 49824, 49600, 49600, 49376, 49600, 49376, 49600, 49824, 49824, 50048, 49824, 49824, 49600, 49152, 49824, 49824, 49600, 50048, 50048, 50304, 50304, 50048, 50048, 49824, 49824, 49824, 48512, 48512, 48512, 0, 0, 0, 0,
       43680, 43680, 43680, 44032, 44032, 44032, 42304, 51008, 51008, 50752, 51232, 51232, 42304, 42304, 44736, 44736, 44032, 44032, 44736, 44544, 44928, 44544, 43840, 43680, 43840, 45280, 44928, 44928, 43328, 43680, 43680, 43680, 44032, 44032, 44384, 44544, 44384, 44736, 44544, 44736, 44928, 44928, 44928, 45280, 45120, 45280, 45472, 45664, 45856, 45664, 45664, 45664, 45856, 46240, 46048, 45664, 45856, 45856, 45856, 45856, 45472, 45664, 45856, 45856, 45856, 45120, 46848, 46848, 46656, 47264, 47264, 47648, 47456, 46848, 46848, 43488, 43488, 42656, 42656, 46048, 46048, 46240, 46240, 46240, 45856, 46464, 46048, 46240, 46656, 46656, 46656, 46656, 46464, 46240, 46240, 46240, 47040, 47264, 47264, 47040, 46656, 46240, 46656, 46656, 46848, 46848, 46656, 47040, 47040, 47040, 46848, 46656, 46656, 46656, 46656, 46656, 46240, 46240, 46464, 46656, 46848, 46240, 46048, 46240, 46464, 46656, 46848, 46848, 46656, 46848, 46464, 47264, 47040, 47872, 47872, 47456, 47264, 47040, 47040, 47040, 47456, 47456, 47264, 47264, 47040, 47040, 46848, 47264, 47264, 47264, 47648, 47648, 47648, 47264, 47264, 47264, 47264, 47648, 47456, 47456, 47264, 47040, 47040, 47040, 47040, 47040, 47040, 47456, 47456, 47456, 47456, 47456, 47648, 47872, 47648, 47456, 47040, 47264, 46848, 46848, 47040, 47040, 46656, 46848, 47264, 47264, 0, 0, 0, 0, 0, 0, 0, 0, 0, 0, 47648, 47648, 47648, 47456, 47456, 48928, 48512, 48096, 47872, 47872, 46240, 47040, 47040, 47040, 47456, 47456, 48512, 47872, 47648, 47456, 47456, 47040, 48736, 48288, 48288, 48288, 48288, 48288, 47872, 48736, 48288, 48288, 48288, 47872, 47872, 47648, 47648, 47872, 47872, 47264, 47264, 48512, 48512, 48928, 48512, 48512, 48512, 48288, 47872, 47872, 47648, 47456, 47040, 47040, 45856, 46048, 48928, 48928, 48512, 48096, 48512, 48512, 48512, 49152, 48512, 50048, 47648, 47872, 47872, 48288, 48288, 48096, 48096, 48928, 48928, 49152, 48928, 49152, 49152, 47872, 48288, 48512, 48288, 48512, 48512, 48736, 48928, 48928, 48928, 48736, 48736, 49152, 49152, 49152, 49376, 49376, 49376, 48928, 48288, 48288, 49152, 49152, 49376, 49152, 49152, 48928, 48736, 48512, 48928, 48928, 49376, 49824, 49600, 49824, 49376, 49152, 48928, 48736, 48288, 48512, 0, 0, 0, 0,
       43680, 43680, 43328, 43328, 42816, 42816, 42304, 42144, 42144, 50528, 50752, 42496, 42304, 42304, 42304, 43680, 43680, 43680, 44032, 44192, 44736, 44544, 43488, 43328, 42816, 42496, 42304, 42976, 43328, 43328, 43328, 43328, 43488, 43488, 43840, 44032, 44032, 44032, 44032, 44192, 44032, 44384, 44544, 44736, 44928, 44928, 45280, 45120, 45280, 45280, 45120, 45280, 45120, 45280, 45280, 45280, 45280, 45280, 45120, 44928, 45120, 45120, 45472, 45280, 45120, 45120, 44736, 45120, 45472, 45856, 45664, 45472, 45856, 45664, 45664, 43488, 43488, 43488, 44032, 44032, 43488, 45664, 45664, 45120, 45120, 45280, 45280, 45472, 44736, 44192, 44032, 44032, 45472, 45472, 45472, 45472, 44736, 44192, 44544, 44544, 45120, 45472, 45856, 45856, 45856, 46240, 46048, 46048, 46048, 46048, 46048, 46048, 46048, 45856, 46240, 46240, 45280, 45856, 45856, 45856, 45664, 45472, 45472, 45280, 45472, 45856, 46048, 46240, 45664, 45664, 0, 0, 0, 0, 0, 0, 0, 0, 47040, 47040, 47264, 47264, 47040, 46464, 46656, 46048, 45472, 45472, 45472, 45472, 44928, 44928, 44928, 45120, 46240, 46464, 46848, 47264, 47040, 47040, 46656, 46464, 46464, 46464, 46656, 46656, 46464, 46656, 46656, 45120, 45120, 47456, 47456, 47456, 47264, 47264, 46848, 47264, 46848, 46656, 46464, 46656, 45664, 45664, 45280, 44736, 0, 0, 0, 0, 0, 0, 0, 0, 0, 0, 47456, 47456, 47264, 47040, 47456, 47456, 47648, 47648, 47456, 47456, 46240, 46240, 46656, 46656, 46848, 46848, 46240, 46048, 47456, 47456, 47456, 46656, 46464, 46464, 46848, 47456, 47040, 47456, 47456, 47456, 47648, 47456, 47648, 47648, 47456, 47456, 47264, 47040, 46848, 47264, 47264, 47456, 47456, 47456, 45856, 45856, 46848, 46848, 47264, 47456, 47456, 47648, 46656, 46240, 45856, 46048, 45664, 48736, 48288, 48288, 48512, 48096, 48096, 48096, 47648, 47040, 47648, 47872, 47872, 48096, 48096, 47648, 47040, 46848, 46848, 49152, 48928, 47648, 47456, 47456, 47456, 47872, 47648, 48096, 47872, 47872, 48096, 47648, 47456, 47456, 47264, 48736, 48736, 48736, 46464, 46464, 46464, 46464, 47264, 47264, 47264, 47264, 48736, 48736, 48288, 47648, 47872, 47872, 47872, 48288, 47648, 47264, 47648, 47648, 47872, 48096, 48288, 47872, 47872, 48096, 0, 0, 0, 0,
       42304, 41984, 41664, 41664, 41664, 41984, 41984, 41984, 41984, 41824, 50752, 41984, 41824, 42144, 42144, 41344, 43328, 43328, 43328, 41344, 41344, 42144, 42144, 41984, 42144, 42144, 42144, 42144, 42144, 43168, 43328, 43168, 43168, 42976, 43168, 43680, 43840, 44032, 43840, 43840, 43680, 44032, 43488, 43328, 43328, 43328, 44544, 44544, 44544, 44544, 44736, 44928, 44736, 44928, 44736, 44544, 44544, 44192, 44544, 44384, 44544, 44736, 44736, 44736, 44736, 44544, 44544, 44544, 44544, 44384, 44384, 43840, 45472, 45472, 42656, 43328, 43328, 43168, 43680, 43488, 43488, 43840, 43840, 44032, 43488, 44032, 44032, 45120, 44544, 44192, 43840, 44384, 45120, 45280, 45280, 45120, 44544, 44384, 44544, 44384, 45472, 45280, 45280, 42656, 42656, 42656, 42496, 42496, 42496, 0, 45856, 45856, 45856, 45664, 45664, 45664, 45280, 45280, 45120, 45280, 45280, 45280, 45472, 45280, 45280, 0, 0, 0, 0, 0, 0, 0, 0, 0, 0, 0, 0, 0, 0, 43168, 43840, 43840, 44032, 46240, 46240, 45856, 45280, 45280, 0, 0, 0, 44544, 44544, 44736, 45664, 45856, 46240, 46240, 46656, 46464, 46464, 44736, 44384, 44544, 44384, 45472, 45664, 45280, 45120, 45120, 45120, 0, 0, 0, 0, 0, 44928, 45664, 45472, 45280, 45856, 45856, 44736, 44736, 44544, 44544, 44544, 0, 0, 0, 0, 0, 0, 0, 0, 0, 43840, 43840, 43840, 43680, 43488, 43328, 43328, 43328, 43680, 46240, 46240, 46048, 46240, 46240, 46848, 46848, 46848, 45856, 45280, 45120, 45120, 45280, 45664, 45664, 45472, 45280, 45664, 45664, 46048, 46048, 46048, 47040, 47040, 47264, 47040, 47264, 47264, 45280, 45120, 44736, 44736, 46848, 46848, 45856, 45856, 45856, 45856, 46240, 46048, 46240, 46848, 45856, 45664, 45472, 45472, 45280, 45280, 44928, 45120, 44928, 48512, 48288, 48288, 48096, 47040, 46656, 47264, 47456, 47456, 47648, 47264, 47264, 46656, 46240, 46464, 46656, 46656, 46048, 46048, 46656, 46656, 46656, 46848, 46848, 46848, 46656, 46656, 47264, 47264, 47040, 46848, 46464, 46464, 46048, 45664, 45856, 45856, 45280, 45280, 47040, 47040, 46656, 46464, 46464, 46656, 46848, 46848, 47456, 47264, 47648, 47264, 46848, 47264, 47264, 46848, 46656, 46464, 46464, 47264, 47456, 0, 0, 0, 0,
       41664, 41504, 41664, 41664, 41664, 41664, 41664, 41664, 41664, 41504, 41664, 41664, 41344, 41216, 41344, 41056, 41056, 41216, 41216, 41344, 41344, 41344, 41504, 41664, 41824, 41824, 41984, 41984, 41984, 42144, 42144, 42816, 42816, 42816, 42816, 42816, 42816, 42656, 42144, 43680, 43680, 43328, 43328, 43168, 42816, 42656, 42656, 42656, 41824, 41824, 42976, 42976, 43488, 42816, 42816, 42816, 42816, 43328, 42656, 42656, 41664, 43840, 43840, 43840, 44384, 44384, 44384, 44192, 43328, 43168, 42976, 43168, 43168, 42656, 42656, 42656, 42656, 42496, 42144, 42496, 42144, 42144, 41216, 40896, 42816, 43680, 42144, 42656, 42656, 43680, 43680, 43680, 41824, 41664, 41664, 41984, 42816, 42816, 42816, 42816, 42656, 42656, 42656, 42656, 42656, 42656, 42496, 42496, 42496, 42304, 42144, 41984, 41984, 0, 41216, 41216, 0, 44544, 44544, 0, 0, 0, 0, 0, 0, 0, 0, 0, 0, 0, 0, 0, 0, 0, 0, 0, 0, 0, 43168, 43168, 43840, 43840, 44032, 44032, 42656, 42656, 42656, 42656, 42656, 0, 0, 44544, 44544, 44544, 45280, 45280, 45856, 45856, 45856, 44544, 44544, 44544, 44384, 44384, 44192, 43840, 43680, 44928, 44928, 44544, 44192, 0, 0, 0, 0, 0, 44928, 44928, 44736, 44736, 44736, 44544, 44544, 44544, 44384, 44384, 44384, 43840, 44032, 0, 43840, 43680, 43328, 43840, 43840, 44032, 43840, 43840, 43840, 43680, 43488, 43328, 43328, 43328, 43680, 43680, 42816, 45664, 45664, 45856, 45856, 43680, 43680, 43680, 45280, 44736, 44736, 42656, 42496, 42304, 42304, 43168, 43168, 43168, 43168, 43168, 43168, 43168, 43168, 43168, 43328, 44544, 44544, 44736, 44736, 44544, 44032, 44032, 46048, 45856, 45856, 45664, 45664, 45664, 45472, 45472, 45120, 44928, 44928, 44736, 44928, 44736, 44928, 44544, 44384, 44384, 44032, 44032, 48512, 48512, 42304, 41824, 44544, 44544, 47648, 47648, 47648, 45280, 45280, 45664, 45472, 45120, 45120, 45120, 45120, 45120, 46048, 45280, 45280, 45280, 45472, 46048, 45120, 45472, 45120, 45120, 46464, 45280, 46240, 45280, 45280, 45280, 45280, 45280, 45280, 46464, 46464, 45856, 46240, 46464, 46240, 46464, 46240, 45856, 45856, 45856, 46048, 46048, 46656, 46464, 46240, 46464, 45856, 45856, 46048, 45664, 0, 0, 0, 0,
       41344, 41344, 41504, 41344, 41504, 41504, 41216, 41344, 41344, 41216, 41216, 41344, 41056, 41056, 41056, 41056, 41056, 41056, 41216, 41056, 41056, 41056, 41056, 41216, 41344, 41344, 41504, 41824, 41824, 41984, 41824, 42144, 42144, 42144, 42144, 41984, 42144, 41984, 41824, 41664, 41216, 41216, 42496, 42304, 42304, 41984, 42144, 42304, 41824, 41824, 42496, 42304, 42496, 42304, 42304, 42976, 42496, 42496, 41984, 41824, 41664, 41664, 41664, 41504, 41504, 41216, 41216, 43168, 43168, 43168, 42976, 42656, 42656, 42496, 41504, 41344, 41504, 41664, 41664, 41824, 41824, 41664, 41056, 40896, 41216, 41344, 41344, 42304, 41664, 41984, 42304, 41824, 41824, 41664, 41664, 41984, 41984, 42144, 41984, 41984, 42144, 42144, 42144, 42304, 42496, 42496, 42496, 42304, 42304, 42304, 42144, 41984, 41984, 41216, 41216, 41216, 41216, 0, 0, 0, 0, 0, 0, 0, 0, 0, 0, 0, 0, 0, 0, 0, 0, 0, 0, 0, 0, 41984, 41984, 42496, 42496, 43488, 43488, 42656, 42656, 42656, 42656, 42656, 42656, 41984, 41824, 41824, 41664, 41664, 41664, 41824, 0, 41824, 41664, 41664, 41344, 44192, 44192, 44032, 43840, 43328, 43328, 43840, 0, 0, 43840, 0, 0, 0, 0, 0, 0, 0, 43328, 42976, 42496, 42496, 42496, 44192, 44192, 44032, 43840, 43680, 43680, 43328, 43328, 43168, 43168, 43168, 43328, 43488, 43680, 43488, 43488, 43488, 43328, 43168, 42976, 42976, 42976, 42976, 42816, 42496, 42496, 42496, 42496, 42976, 43328, 43328, 43168, 43168, 42656, 42656, 42496, 42304, 42304, 43168, 43168, 43168, 43168, 43168, 43168, 43168, 43168, 43168, 43328, 43328, 44544, 44928, 44544, 44544, 44544, 42496, 45664, 45664, 45280, 44928, 44928, 44384, 44736, 44736, 44736, 44736, 44544, 44192, 44384, 44192, 43840, 43840, 43840, 43328, 43488, 43488, 42496, 42304, 42304, 41824, 44544, 44544, 44544, 44544, 44736, 44928, 44928, 44544, 44384, 44544, 44544, 44928, 44928, 44928, 45280, 45120, 45120, 44928, 44384, 43840, 43840, 43840, 44928, 44928, 44736, 45120, 45120, 44928, 45120, 44928, 44928, 44928, 43488, 43488, 45856, 45472, 44736, 45664, 44736, 46464, 46464, 45856, 45856, 44032, 44032, 44928, 44544, 44384, 44384, 43840, 44192, 45472, 44736, 44736, 0, 0, 0, 0,
       41216, 41216, 41344, 41216, 41344, 41344, 40896, 40896, 40896, 40736, 40448, 40736, 40896, 40896, 40896, 40896, 40896, 40896, 40896, 40896, 40896, 40736, 40896, 40896, 40896, 41056, 40896, 40896, 41056, 41344, 41504, 41216, 41216, 41056, 41056, 41504, 41216, 41056, 41344, 41344, 41056, 41056, 41344, 41664, 42304, 41984, 41824, 41824, 41344, 41824, 41824, 41824, 42304, 42144, 41824, 41504, 41664, 41344, 41824, 41664, 41504, 41664, 41504, 41344, 41344, 41344, 41216, 41216, 40000, 40736, 40736, 40736, 40736, 40736, 40576, 40736, 40736, 40896, 41216, 41344, 41216, 41216, 40736, 40576, 40448, 40736, 40896, 41344, 41504, 41824, 41984, 41664, 41664, 41216, 41344, 41664, 41824, 41824, 41664, 41344, 41344, 41216, 41216, 41824, 41984, 41984, 42304, 42144, 42144, 42304, 42144, 41984, 41984, 41216, 41216, 41216, 41216, 0, 0, 0, 0, 0, 0, 0, 0, 0, 0, 0, 0, 0, 0, 0, 0, 0, 0, 0, 0, 41504, 43168, 42816, 41504, 41504, 41824, 0, 42496, 42496, 42496, 42496, 42304, 41984, 41824, 41824, 41664, 41664, 0, 41824, 41824, 41824, 41664, 41664, 41344, 41344, 41344, 44032, 43680, 0, 0, 0, 0, 0, 0, 0, 0, 0, 0, 0, 0, 0, 42304, 41984, 42304, 42144, 41824, 42144, 43488, 43488, 43328, 43168, 43168, 42816, 42656, 42816, 42816, 42656, 42816, 42816, 43168, 43168, 43168, 43168, 42976, 42816, 42496, 42816, 42496, 42496, 42656, 42496, 42496, 42496, 42656, 43488, 43328, 43168, 42816, 42496, 42304, 42304, 42496, 42304, 42976, 42816, 42976, 42976, 42816, 42816, 42656, 42656, 42816, 42816, 42976, 43168, 42976, 42656, 42496, 42496, 42496, 42496, 42496, 42496, 42496, 43328, 43328, 43488, 43488, 44384, 44544, 44928, 42496, 42496, 43488, 43328, 43328, 43168, 43168, 42976, 42976, 42144, 42304, 41984, 41664, 41824, 41824, 44384, 44384, 44384, 44192, 44544, 44544, 43488, 43680, 43840, 43488, 43488, 43168, 42304, 44928, 44928, 45120, 44928, 44032, 43680, 43680, 43680, 42304, 44032, 44032, 43168, 43168, 42976, 42976, 44544, 44032, 43488, 43488, 43328, 42656, 42976, 43168, 43168, 44384, 43488, 42976, 43168, 43168, 43168, 43680, 43840, 43840, 43840, 43840, 43680, 43680, 43840, 44032, 44192, 0, 0, 0, 0,
       40288, 40896, 40736, 40736, 40576, 40576, 40736, 40736, 40576, 40448, 40160, 40288, 40160, 40896, 40896, 40896, 40736, 40576, 40448, 40576, 40576, 40288, 40448, 40288, 40448, 40576, 40448, 40448, 40736, 40576, 40736, 40896, 40896, 40896, 40896, 40736, 40576, 40736, 40576, 40576, 40736, 40448, 41056, 40896, 41344, 41216, 41216, 40736, 40736, 40736, 39552, 39840, 39840, 39840, 40448, 40896, 41216, 40896, 41216, 41344, 41344, 41504, 41216, 40896, 41344, 41216, 40576, 40576, 40000, 39840, 41216, 41216, 41216, 40576, 40288, 40448, 40448, 40448, 40576, 40576, 40448, 40448, 40448, 40288, 40160, 40288, 40448, 40448, 40576, 40288, 40160, 40000, 40288, 40576, 40736, 40288, 40448, 40736, 41056, 40896, 40896, 40736, 40576, 40576, 40288, 39840, 39712, 39712, 39552, 41824, 41824, 41504, 40736, 40896, 40896, 40896, 40736, 40288, 40288, 0, 0, 0, 0, 0, 0, 0, 0, 0, 0, 0, 0, 0, 0, 0, 0, 0, 0, 0, 0, 41824, 41344, 41344, 41824, 0, 0, 0, 40448, 41216, 41216, 41504, 41344, 41344, 41344, 40160, 39840, 41664, 41664, 41504, 41504, 41344, 41216, 41344, 41216, 41216, 39552, 0, 0, 0, 0, 0, 0, 0, 0, 0, 0, 0, 0, 0, 41216, 41216, 41824, 41824, 41664, 41344, 0, 0, 0, 0, 0, 0, 42304, 41664, 42144, 42304, 41984, 41984, 0, 41984, 0, 0, 42304, 41984, 41824, 41824, 41984, 41984, 42304, 42496, 42496, 42496, 42496, 42304, 42496, 42304, 41984, 41824, 41984, 41984, 42144, 41984, 41824, 42144, 42816, 42656, 42496, 42496, 42496, 42496, 42816, 42816, 42816, 42976, 42304, 42304, 42304, 41824, 41824, 42144, 42144, 42304, 42144, 42144, 42144, 42496, 42496, 42304, 42304, 42144, 42304, 42304, 41984, 42496, 42496, 42304, 42304, 41984, 41824, 41664, 41664, 41504, 41344, 41504, 41216, 41216, 43680, 43840, 43168, 42656, 42496, 42816, 42976, 42816, 42816, 42976, 43168, 42304, 42304, 41824, 41664, 41824, 41664, 41664, 42304, 42144, 42304, 42144, 41824, 42656, 42816, 42656, 42656, 42496, 42304, 43680, 42496, 42496, 42496, 42496, 42816, 42976, 42976, 42976, 42816, 42816, 42976, 42816, 42816, 42816, 43328, 43488, 43488, 43488, 43328, 43488, 43680, 43488, 0, 0, 0, 0,
       39712, 39264, 39264, 39264, 40160, 40000, 39264, 39264, 39136, 40000, 39840, 39712, 39552, 38592, 38464, 38592, 38592, 39712, 39264, 40448, 40288, 40160, 40000, 39840, 39712, 39264, 40160, 40288, 40448, 40288, 40160, 40160, 40000, 40448, 40576, 40448, 40288, 40160, 40160, 39840, 39424, 39424, 39136, 39552, 39424, 39424, 39424, 39552, 39552, 39424, 39552, 39552, 39712, 39552, 39424, 39840, 39712, 40000, 40000, 39136, 39136, 41216, 41216, 37536, 37536, 37536, 39712, 39712, 39712, 39424, 39136, 39008, 39008, 39008, 40000, 40000, 39840, 39712, 39712, 39712, 40000, 40000, 40000, 40160, 40000, 40000, 40000, 39840, 39424, 39552, 39552, 39552, 39840, 39712, 40448, 40160, 40160, 40160, 40000, 40000, 40160, 40160, 40288, 40160, 40000, 39712, 39552, 39552, 39424, 39424, 39424, 39264, 40160, 40160, 40288, 40288, 40160, 40000, 0, 0, 0, 0, 0, 0, 0, 0, 0, 0, 0, 0, 0, 0, 0, 0, 0, 0, 0, 0, 0, 0, 41216, 41056, 0, 0, 0, 0, 40448, 40288, 40448, 41056, 41056, 40448, 40288, 40160, 39840, 39712, 40000, 40000, 40000, 40288, 40288, 41056, 41216, 40000, 39552, 39552, 0, 0, 0, 0, 0, 0, 0, 0, 0, 0, 0, 0, 0, 40896, 40896, 41344, 41344, 41216, 0, 0, 0, 0, 0, 0, 40576, 40896, 40896, 40896, 41664, 41664, 41664, 0, 0, 41664, 41664, 41504, 41504, 41056, 41504, 40736, 40576, 40576, 40288, 42304, 42144, 41824, 41664, 41664, 41664, 41664, 41504, 41504, 41216, 41216, 41056, 40736, 40736, 40576, 40576, 40576, 40288, 42656, 42656, 42496, 42496, 41216, 41216, 41216, 41664, 41664, 41664, 41664, 41824, 42144, 41984, 41824, 41984, 41344, 42144, 41664, 42144, 41824, 42144, 42144, 41664, 41984, 41984, 41824, 41824, 41664, 41504, 41344, 41216, 41216, 41216, 40896, 40736, 40576, 40448, 40000, 42496, 41984, 41984, 42496, 42656, 42144, 41824, 42144, 41824, 41824, 41824, 41664, 41664, 41504, 41344, 41504, 42144, 42304, 42304, 41824, 41664, 41664, 41664, 42304, 42496, 42304, 41824, 41984, 42304, 42304, 42304, 42304, 42304, 41984, 41664, 41664, 41824, 41664, 42656, 42656, 42304, 42144, 41984, 41664, 41504, 41504, 41664, 41984, 43328, 41984, 0, 0, 0, 0,
       0, 39136, 39008, 38592, 38592, 38048, 38048, 39008, 38592, 38720, 39424, 39008, 39136, 38464, 38304, 38304, 38304, 38592, 38720, 38176, 38048, 38048, 39712, 39552, 39136, 39008, 38848, 38720, 38464, 38304, 38848, 38720, 38464, 38176, 38048, 38048, 37920, 39840, 39840, 39712, 39136, 39008, 38720, 38720, 39008, 38848, 38848, 38720, 38720, 39264, 39264, 39424, 39424, 39136, 39008, 39136, 38848, 39008, 39136, 39008, 39008, 39264, 39264, 37536, 37536, 37536, 37792, 38464, 38464, 38848, 38720, 38720, 38720, 38720, 38720, 39008, 39008, 39136, 39264, 39264, 39840, 39840, 40000, 39840, 39840, 39840, 39424, 39136, 39008, 39008, 39136, 39264, 39424, 39264, 39264, 39264, 39712, 39712, 39424, 39424, 39264, 39552, 40000, 40000, 39840, 39552, 39424, 39424, 39424, 39264, 39264, 39264, 39136, 39008, 39424, 39712, 39840, 39712, 39424, 0, 0, 0, 0, 0, 0, 0, 0, 0, 0, 0, 0, 0, 0, 0, 0, 0, 0, 0, 0, 0, 0, 0, 0, 0, 0, 0, 0, 39840, 39840, 40000, 40448, 40448, 40160, 40000, 39712, 39552, 39552, 39712, 39712, 40000, 39840, 40000, 39840, 39840, 39840, 39552, 0, 0, 0, 0, 0, 0, 0, 0, 0, 0, 0, 0, 0, 40000, 39712, 39712, 39712, 0, 0, 0, 0, 0, 0, 0, 0, 40576, 40576, 40576, 0, 39008, 39008, 0, 0, 0, 0, 0, 0, 40576, 40448, 40448, 40448, 40288, 40160, 40160, 40160, 39840, 39424, 40288, 40160, 41056, 40896, 40896, 40736, 40288, 40576, 40576, 40576, 40576, 40448, 40288, 40288, 40160, 39840, 39840, 39840, 39712, 39712, 38848, 40448, 40448, 41056, 41344, 41504, 41504, 41504, 41056, 41056, 41056, 40736, 40000, 40000, 40160, 40288, 40736, 40736, 40576, 41504, 41056, 41056, 41056, 40896, 40896, 40896, 40896, 40896, 40576, 40448, 40288, 40288, 39840, 41984, 41824, 38848, 38848, 38592, 41216, 41216, 41344, 41344, 41504, 41504, 41504, 41504, 41504, 41216, 40896, 40576, 40000, 40000, 41344, 41344, 41056, 40736, 41056, 40896, 40896, 41056, 40736, 40576, 40576, 42144, 42144, 41824, 41056, 40896, 40896, 41056, 41216, 41056, 41056, 41056, 41824, 41664, 41504, 41216, 41216, 41344, 41216, 41504, 41344, 0, 0, 0, 0,
       0, 0, 39136, 39136, 36640, 37536, 37536, 37536, 38176, 38176, 38176, 38176, 38304, 37792, 38048, 38048, 38048, 38176, 38048, 37792, 37664, 37536, 37536, 37536, 39136, 39008, 38048, 38464, 38176, 38048, 38176, 38048, 38048, 37920, 37920, 38048, 37920, 37792, 37536, 37536, 38048, 38464, 38464, 37920, 38848, 37920, 37920, 38464, 38304, 38304, 37536, 37536, 37408, 37664, 38304, 38304, 38304, 38304, 38304, 38848, 38848, 38848, 38848, 37664, 37536, 37792, 37792, 37664, 38048, 38464, 38464, 38464, 38464, 38464, 38464, 38720, 38720, 38464, 37920, 37920, 37536, 37536, 37536, 37280, 37280, 37280, 37792, 38592, 38592, 38720, 38720, 39264, 38848, 38592, 38464, 37792, 37664, 37664, 38048, 38176, 38176, 38848, 38176, 38464, 38464, 39264, 39264, 39264, 39264, 39008, 39008, 39008, 38720, 0, 0, 0, 0, 0, 0, 0, 0, 0, 0, 0, 0, 0, 0, 0, 0, 0, 0, 0, 0, 0, 0, 0, 0, 0, 0, 0, 0, 0, 0, 0, 0, 0, 0, 0, 39552, 0, 0, 0, 0, 0, 39552, 39136, 39008, 39424, 39136, 39552, 39552, 39264, 39264, 39264, 39264, 0, 0, 0, 0, 0, 0, 0, 0, 0, 0, 0, 0, 0, 0, 39840, 39552, 39552, 39008, 38304, 0, 0, 0, 0, 0, 0, 39712, 0, 0, 39136, 38848, 39008, 39008, 0, 0, 0, 0, 0, 0, 0, 40000, 40288, 40288, 40000, 40000, 40000, 39712, 39424, 39136, 39136, 39424, 39424, 40448, 40160, 40288, 40000, 40160, 40288, 40160, 40160, 40160, 40000, 40000, 40000, 40000, 40000, 39840, 39840, 38848, 38848, 38848, 38848, 38720, 38464, 38464, 38464, 38464, 38464, 38592, 40288, 40288, 39840, 39712, 39712, 39712, 39712, 40000, 40000, 39840, 39840, 39840, 40288, 40288, 40288, 40448, 40160, 40288, 40448, 40288, 40288, 40288, 39264, 39008, 38848, 38720, 38592, 38592, 41056, 41056, 41056, 40736, 40576, 40896, 40896, 41344, 41344, 41056, 40448, 40288, 40000, 39840, 39840, 40000, 40288, 40288, 40288, 40000, 40000, 40160, 40448, 40288, 40000, 39840, 39840, 39840, 40736, 40736, 40736, 40736, 40736, 40736, 40736, 40576, 40448, 40448, 41056, 40896, 40896, 40896, 40896, 40896, 0, 0, 0, 0, 0,
       0, 0, 0, 36640, 36640, 36640, 36896, 36768, 37152, 37920, 37920, 38048, 37664, 37536, 37792, 37920, 37920, 37920, 37920, 37536, 37536, 37408, 37280, 37280, 37280, 37408, 37664, 37920, 37920, 37792, 37792, 37536, 37024, 37408, 37408, 37792, 37536, 37536, 37408, 37408, 37664, 37920, 38048, 37408, 38048, 37408, 37408, 37920, 37792, 37664, 37536, 37536, 37408, 37408, 37536, 37536, 38176, 38304, 38592, 38720, 38720, 36512, 36512, 36512, 37280, 37280, 37024, 36896, 36768, 36768, 36512, 36416, 36512, 36416, 36640, 36896, 36896, 37920, 37536, 37408, 37536, 37536, 37536, 37408, 37280, 37152, 37024, 37408, 37408, 37408, 37408, 37408, 37408, 37408, 37408, 37408, 37664, 37536, 37536, 37536, 37536, 37792, 37792, 37792, 37792, 37792, 37664, 37536, 37280, 37024, 37024, 37024, 38048, 38048, 0, 0, 0, 0, 0, 0, 0, 0, 0, 0, 0, 0, 0, 0, 0, 0, 0, 0, 0, 0, 0, 0, 0, 0, 0, 0, 0, 0, 0, 0, 0, 0, 0, 0, 0, 0, 0, 0, 0, 0, 0, 0, 38720, 39264, 39008, 39008, 39136, 39008, 39136, 39264, 39136, 0, 0, 0, 0, 0, 0, 0, 0, 0, 0, 0, 0, 0, 0, 0, 0, 0, 38176, 38048, 37792, 0, 0, 0, 0, 0, 0, 0, 0, 0, 0, 38848, 0, 0, 0, 0, 0, 0, 0, 0, 39424, 39424, 39712, 39712, 39712, 39840, 39840, 39008, 38848, 38720, 38304, 38304, 37664, 37536, 37664, 37664, 37664, 37536, 37280, 37536, 37536, 39840, 39840, 39840, 39840, 39840, 39840, 39840, 38720, 38720, 38848, 38848, 38720, 38464, 38464, 38464, 38464, 37792, 38592, 38592, 38304, 38304, 39552, 39552, 38720, 39008, 39008, 39424, 39712, 39840, 39840, 37920, 38304, 38720, 38720, 39008, 39008, 38464, 38464, 38464, 38720, 38848, 38848, 38592, 38592, 38464, 38304, 38304, 38176, 40448, 40160, 40000, 39840, 39552, 39424, 39424, 40288, 39840, 40000, 39840, 39712, 39840, 39840, 40000, 40000, 39712, 39552, 39712, 39712, 39712, 38304, 39712, 39712, 39712, 39712, 39840, 39840, 39712, 39712, 39712, 39840, 39424, 39424, 39264, 39264, 39264, 40160, 40160, 39552, 39552, 39264, 39264, 0, 0, 0, 0,
       0, 0, 0, 36512, 36512, 36512, 36640, 36640, 36768, 36768, 36896, 37152, 37280, 37024, 37280, 36512, 36416, 36416, 36416, 37024, 36896, 37280, 37024, 37024, 37152, 37024, 37152, 37152, 37536, 36896, 36896, 37024, 37024, 37024, 37024, 37024, 36640, 36896, 37280, 37280, 37408, 37408, 37408, 37024, 37152, 37024, 36640, 36032, 37024, 37280, 36896, 37408, 37280, 37408, 37408, 37408, 0, 38464, 38176, 38176, 36416, 36416, 35456, 35584, 35680, 35680, 36416, 36512, 36512, 36512, 36512, 36416, 36512, 36416, 36640, 36640, 36640, 36768, 37152, 37024, 37152, 37152, 37024, 37152, 37152, 36896, 36768, 36896, 37152, 37280, 37408, 37280, 37152, 36896, 36896, 37024, 37408, 37408, 37792, 37536, 37280, 37152, 37024, 37280, 37280, 37408, 37280, 37024, 37152, 37024, 36896, 36896, 37152, 37024, 0, 0, 0, 0, 0, 0, 0, 0, 0, 0, 0, 0, 0, 0, 0, 0, 0, 0, 0, 0, 0, 0, 0, 0, 0, 0, 0, 0, 0, 0, 0, 0, 0, 0, 0, 35008, 35008, 0, 0, 0, 0, 0, 0, 0, 0, 0, 0, 38720, 0, 39264, 0, 0, 0, 0, 0, 0, 0, 0, 0, 0, 0, 0, 0, 0, 0, 0, 0, 0, 0, 0, 0, 0, 0, 0, 0, 0, 0, 0, 0, 0, 37280, 37408, 37792, 37920, 37920, 37792, 0, 0, 0, 0, 0, 0, 37408, 37280, 37280, 37152, 37024, 37280, 37536, 37792, 37792, 37664, 37664, 37536, 37664, 37664, 37664, 37536, 37280, 37536, 37536, 37792, 37792, 37664, 37664, 37664, 37664, 37792, 37920, 37920, 37920, 38304, 38304, 38304, 38176, 38048, 37792, 37792, 38176, 38176, 37920, 37920, 37792, 37792, 38720, 38720, 38592, 38464, 38304, 38176, 37920, 37920, 38304, 38464, 38464, 38592, 38464, 38304, 38304, 38464, 38464, 38464, 38464, 38304, 38304, 38176, 38048, 37920, 38048, 37920, 40000, 39712, 39552, 39552, 39424, 39264, 39424, 39552, 39712, 39712, 39136, 39136, 38176, 38176, 39840, 39264, 38848, 39264, 38304, 38304, 38304, 38304, 39264, 38720, 38720, 39008, 39008, 39264, 39264, 39136, 38848, 38720, 39008, 39008, 39008, 39136, 39264, 39264, 39264, 39136, 39008, 39008, 0, 0, 0, 0,
       0, 36160, 36288, 36416, 36416, 36416, 36416, 36288, 36416, 36288, 36032, 35808, 35936, 36160, 36160, 36288, 36288, 36160, 36032, 36032, 36032, 35936, 36032, 36032, 36032, 36768, 36896, 36896, 36512, 36768, 36768, 36768, 36896, 36768, 36768, 36416, 36160, 36416, 36288, 36032, 35808, 35456, 35584, 36768, 36288, 36640, 36640, 35808, 35808, 36288, 36288, 36288, 37152, 37280, 37280, 37152, 0, 0, 0, 0, 35232, 35360, 35456, 35584, 35680, 35584, 35584, 35584, 35584, 36288, 36288, 36416, 36640, 36160, 36416, 36416, 36288, 36160, 36512, 36640, 36640, 36896, 36768, 37152, 36896, 36768, 36768, 36640, 36640, 36640, 36768, 36768, 36640, 36512, 36640, 36416, 36416, 36896, 36896, 36896, 37152, 36640, 36768, 36768, 36768, 36768, 36768, 36768, 36640, 36640, 36640, 36640, 36896, 36768, 0, 0, 0, 0, 0, 0, 0, 0, 0, 0, 0, 0, 0, 0, 0, 0, 0, 0, 0, 0, 0, 0, 0, 0, 0, 0, 0, 0, 0, 0, 0, 0, 0, 0, 0, 35008, 35008, 0, 0, 0, 0, 0, 0, 0, 0, 0, 0, 0, 0, 0, 0, 0, 0, 0, 0, 0, 0, 0, 0, 0, 0, 0, 0, 0, 0, 0, 0, 0, 0, 0, 0, 0, 0, 0, 0, 0, 0, 0, 0, 0, 0, 37280, 37536, 37664, 37536, 0, 0, 0, 0, 0, 0, 0, 37408, 37024, 37024, 36896, 36896, 36896, 37024, 37152, 37152, 37152, 37152, 37152, 37280, 37408, 37536, 37152, 37024, 37280, 37280, 37408, 37408, 37408, 36768, 36768, 36768, 36896, 37536, 37536, 37536, 37408, 37408, 37664, 37664, 37664, 37664, 37536, 37408, 37664, 37792, 37792, 37664, 37536, 37536, 37536, 38176, 38304, 38176, 37920, 37792, 37792, 38048, 38048, 38176, 37920, 37920, 37920, 37920, 38048, 38048, 38048, 38048, 38048, 38048, 37792, 37664, 37664, 37920, 37536, 37536, 39424, 39424, 36160, 39424, 39264, 39264, 39264, 39264, 37920, 37920, 37920, 37920, 37792, 37792, 38048, 38464, 38048, 38176, 38176, 38048, 38176, 38176, 38176, 38176, 37792, 37792, 37664, 37664, 37792, 38048, 38176, 38304, 38304, 38464, 38720, 39008, 39008, 39136, 39008, 38720, 38592, 0, 0, 0, 0,
       0, 36288, 36416, 36416, 36288, 36288, 34240, 33920, 35232, 35680, 35584, 35584, 35680, 35680, 35808, 35808, 35808, 35936, 35936, 35808, 35936, 35808, 35104, 35104, 35104, 35232, 35456, 35360, 35456, 35232, 35104, 35104, 35104, 35104, 35808, 36032, 36032, 36032, 36032, 35936, 35456, 35360, 35360, 35584, 35584, 36160, 36160, 35808, 35808, 35808, 36032, 36416, 0, 37280, 37280, 0, 0, 0, 0, 0, 34880, 34688, 35456, 35808, 35808, 35584, 35456, 0, 0, 0, 35232, 35232, 35104, 35680, 35808, 35808, 35808, 35680, 35456, 35456, 36896, 36768, 36768, 36768, 36768, 32608, 32800, 32608, 32608, 0, 32608, 36416, 36416, 36416, 36416, 36288, 36160, 36160, 36160, 36288, 36288, 36416, 36416, 36416, 36640, 36416, 36416, 36416, 36288, 36032, 36288, 36288, 36288, 36288, 0, 0, 0, 0, 0, 0, 0, 0, 0, 0, 0, 0, 0, 0, 0, 0, 0, 0, 0, 0, 0, 0, 0, 0, 0, 0, 0, 0, 0, 0, 0, 0, 0, 0, 0, 0, 0, 0, 0, 0, 0, 0, 0, 0, 0, 0, 0, 0, 0, 0, 0, 0, 0, 0, 0, 0, 0, 0, 0, 0, 0, 0, 0, 0, 0, 0, 0, 0, 0, 0, 0, 0, 0, 0, 0, 0, 0, 0, 0, 0, 0, 0, 35936, 35808, 35936, 0, 0, 0, 0, 0, 0, 0, 35808, 36416, 36416, 36512, 36640, 36768, 36768, 36896, 36896, 36896, 36896, 36768, 36640, 36640, 36512, 36640, 36768, 36896, 37152, 37024, 36768, 36640, 36640, 36768, 36768, 36896, 36896, 36768, 37024, 37024, 37024, 37152, 36896, 37152, 37280, 37280, 37152, 37280, 37408, 37536, 37408, 37024, 36768, 36640, 36640, 36640, 36768, 37536, 37536, 37664, 37664, 37408, 37408, 36288, 37664, 37664, 36896, 36896, 36768, 36640, 36768, 36768, 36896, 37024, 37280, 37280, 37024, 36896, 36640, 36288, 36160, 36160, 36160, 36032, 36032, 35104, 37920, 37920, 37920, 37920, 37792, 37664, 37408, 37280, 37152, 37280, 37280, 37920, 37920, 38176, 37920, 37920, 37536, 37536, 37536, 37536, 37536, 37664, 37664, 37792, 37792, 37408, 37920, 37920, 36512, 36768, 36768, 36768, 37024, 37280, 0, 0, 0, 0,
       0, 0, 0, 34464, 34336, 34336, 34464, 34560, 34784, 34880, 35104, 35232, 34688, 34688, 34688, 34560, 34688, 34688, 34464, 34688, 34784, 34880, 34880, 35008, 35008, 35104, 35232, 35104, 35360, 34880, 35008, 35008, 35008, 34880, 35008, 34784, 35808, 35808, 35808, 35808, 35008, 34880, 35008, 35104, 35232, 35232, 35232, 35680, 35680, 35680, 35808, 0, 0, 0, 0, 0, 0, 0, 0, 0, 34560, 34464, 0, 0, 0, 0, 0, 0, 0, 0, 34880, 35104, 35232, 35232, 35456, 35360, 35456, 35584, 35456, 35456, 35456, 32896, 32896, 32896, 0, 32608, 32800, 32608, 32608, 0, 0, 0, 0, 35936, 35936, 35936, 35936, 36032, 36032, 36288, 36288, 36416, 36416, 36288, 36416, 33728, 33600, 36032, 36032, 35808, 35808, 35808, 32224, 0, 0, 0, 0, 0, 0, 0, 0, 0, 0, 32800, 0, 0, 0, 0, 0, 0, 0, 0, 0, 0, 0, 0, 0, 0, 0, 0, 0, 0, 0, 0, 0, 0, 0, 0, 0, 0, 34880, 34688, 34688, 34560, 34336, 0, 0, 0, 0, 0, 0, 0, 0, 0, 0, 0, 0, 0, 0, 0, 0, 0, 0, 0, 0, 0, 0, 0, 0, 0, 0, 0, 0, 0, 0, 0, 0, 0, 0, 0, 0, 0, 0, 0, 0, 0, 0, 35584, 35584, 0, 0, 0, 0, 0, 35008, 35008, 35808, 35936, 36032, 36160, 36160, 36288, 36288, 36288, 36768, 36640, 36768, 36640, 36416, 36416, 36416, 36512, 36512, 36512, 36416, 36512, 36288, 36416, 36512, 36416, 36416, 36512, 36416, 36416, 36768, 35936, 35936, 35936, 36032, 36032, 35808, 35808, 36896, 36896, 37024, 36288, 36288, 36416, 36512, 36416, 36416, 36416, 36416, 36512, 36416, 36288, 36288, 36160, 36160, 36288, 36032, 36032, 36640, 36640, 36640, 36512, 36640, 36640, 36512, 36288, 36288, 36288, 36160, 36288, 35936, 35936, 35936, 36032, 36032, 35936, 35584, 35104, 35008, 37792, 37664, 37664, 37664, 37408, 36768, 36640, 36640, 36640, 36640, 36640, 36640, 36640, 36768, 36640, 36896, 37152, 37280, 37408, 37408, 37408, 37408, 37152, 37152, 37152, 36896, 36896, 36512, 36512, 36768, 36768, 36896, 36896, 0, 0, 0, 0,
       0, 0, 0, 34336, 34240, 34464, 34016, 34688, 34688, 34464, 34784, 34240, 34240, 34464, 34464, 34464, 34464, 34464, 34336, 34560, 34560, 34240, 34336, 34464, 34336, 34688, 35008, 34240, 34240, 34240, 34336, 34688, 34688, 34688, 34560, 34560, 34336, 34144, 34144, 33920, 34336, 34560, 34688, 34688, 34240, 34240, 34240, 35456, 35456, 35456, 35456, 35456, 0, 0, 0, 0, 0, 0, 0, 0, 0, 0, 0, 0, 0, 0, 0, 0, 0, 35008, 35008, 35008, 35008, 35008, 35232, 35232, 35104, 35104, 35104, 31744, 0, 32224, 32896, 32896, 32704, 32608, 32800, 32608, 32608, 32704, 32608, 32800, 32800, 0, 32416, 0, 0, 0, 32512, 32512, 36416, 36416, 36416, 36288, 36288, 33504, 33312, 32800, 32992, 32992, 32224, 32224, 0, 0, 0, 0, 0, 0, 0, 0, 0, 0, 32992, 32704, 0, 0, 0, 0, 0, 0, 0, 0, 0, 0, 0, 0, 0, 0, 0, 0, 0, 33728, 33728, 33600, 33600, 33728, 33728, 0, 0, 0, 33312, 33600, 34144, 34144, 0, 0, 0, 0, 0, 0, 0, 0, 0, 0, 0, 0, 0, 34016, 34016, 33920, 34144, 34144, 34016, 34144, 0, 0, 0, 0, 0, 0, 0, 0, 0, 0, 0, 0, 0, 0, 0, 0, 0, 0, 0, 0, 0, 0, 35232, 35232, 35360, 35360, 0, 0, 34880, 34688, 34880, 34880, 35808, 35808, 35808, 35936, 36032, 36032, 36032, 36032, 36768, 36768, 36768, 36768, 35360, 35360, 35456, 36160, 36032, 35808, 35680, 35680, 35680, 35808, 35680, 35680, 35808, 35936, 36032, 36032, 35456, 35680, 35808, 35808, 35936, 35936, 35680, 35456, 35360, 35360, 35360, 35456, 36032, 35936, 36032, 36032, 36032, 35936, 35808, 35456, 35456, 35360, 36032, 36032, 35936, 35936, 35936, 35808, 35808, 35808, 35808, 36160, 36512, 36416, 36288, 35936, 36032, 36032, 35936, 36032, 35808, 35808, 35808, 35808, 35680, 35584, 35232, 35008, 34880, 34784, 34560, 37152, 34336, 36768, 36640, 36512, 36416, 36288, 36288, 36512, 36416, 36416, 36512, 35680, 35680, 36160, 36160, 36160, 36288, 36160, 37024, 37024, 37152, 37024, 36768, 36640, 36416, 36416, 36512, 36512, 36512, 36640, 0, 0, 0, 0,
       0, 0, 0, 0, 33824, 33824, 33824, 33728, 34336, 34016, 33600, 33504, 33504, 33504, 33824, 33728, 33600, 33824, 33728, 34144, 34144, 33920, 33824, 33920, 33824, 33408, 33312, 33408, 34016, 34144, 33920, 33824, 33824, 33728, 33824, 33920, 33728, 33824, 33824, 33728, 33600, 33600, 33408, 34240, 34240, 34240, 34240, 0, 35808, 35808, 35808, 35808, 0, 0, 0, 0, 0, 0, 0, 0, 0, 0, 0, 0, 0, 0, 0, 0, 0, 0, 35104, 35104, 35104, 35104, 35104, 31392, 31296, 31648, 31648, 31744, 32032, 32224, 32224, 32704, 32608, 32608, 32704, 32512, 32608, 32704, 32608, 32800, 32800, 32128, 32416, 32416, 32608, 0, 32512, 32512, 0, 35936, 35936, 35936, 36288, 36160, 36160, 32608, 32608, 32512, 32224, 32224, 32032, 0, 0, 0, 0, 0, 0, 0, 0, 0, 32896, 32896, 0, 0, 0, 0, 0, 0, 0, 0, 0, 0, 0, 32992, 0, 0, 0, 0, 0, 33728, 33600, 33600, 33600, 33600, 33728, 0, 0, 33312, 33312, 33600, 33600, 33600, 33600, 0, 0, 0, 0, 0, 0, 0, 0, 0, 0, 0, 0, 34016, 33920, 33824, 34240, 34144, 34144, 34016, 0, 0, 0, 0, 0, 0, 0, 0, 0, 34016, 33824, 33600, 33600, 33504, 33600, 0, 0, 0, 0, 0, 0, 0, 0, 0, 0, 0, 0, 0, 34016, 34016, 34016, 33824, 33824, 33408, 33312, 33312, 33600, 33600, 0, 0, 0, 35232, 35232, 35232, 35232, 35232, 35456, 35584, 35584, 35360, 35456, 35008, 35232, 35360, 35008, 35360, 35008, 35008, 34880, 34880, 35104, 35008, 35584, 35680, 35680, 35680, 35456, 35360, 35232, 35232, 35232, 35232, 35360, 35456, 35680, 35680, 35680, 35456, 35232, 35232, 35232, 35008, 35232, 35680, 35808, 35808, 35680, 35584, 35584, 35360, 35360, 35360, 35360, 35360, 34880, 35584, 35456, 35680, 35584, 35680, 35584, 35232, 35232, 35232, 35104, 35104, 35008, 34880, 34784, 34688, 34336, 34240, 34144, 34016, 36512, 36288, 36160, 36032, 36032, 36160, 35680, 35584, 35456, 35584, 35584, 35584, 35584, 35936, 35808, 35584, 35360, 35232, 35232, 35584, 35808, 35680, 35808, 36032, 35584, 35584, 35680, 35456, 0, 0, 0, 0,
       0, 0, 0, 0, 0, 33600, 33600, 33504, 33728, 32608, 33312, 33312, 33408, 33408, 33504, 33312, 33312, 33312, 33312, 33312, 33408, 33408, 33408, 33728, 33728, 33504, 33312, 33408, 33728, 33728, 33600, 33504, 33504, 33504, 33728, 33600, 33216, 33600, 33600, 33728, 33504, 33504, 33408, 33504, 34144, 30848, 30848, 30784, 30784, 30784, 0, 0, 0, 0, 0, 0, 0, 0, 0, 0, 0, 0, 0, 0, 0, 0, 0, 0, 0, 0, 35360, 35360, 35360, 35232, 31488, 31392, 31296, 31648, 31648, 31744, 32032, 32032, 32032, 32800, 32896, 32704, 32608, 32512, 32608, 32608, 32512, 32512, 32128, 32128, 32416, 32416, 32608, 32512, 32512, 32512, 31936, 31936, 35808, 35808, 36288, 36288, 36416, 32224, 32320, 32224, 32128, 32032, 32032, 32032, 32032, 32128, 32128, 32224, 32320, 32512, 0, 0, 32800, 32800, 32896, 32896, 0, 0, 32704, 32896, 32896, 32896, 32896, 32704, 32896, 32896, 32896, 32896, 0, 0, 0, 32800, 32800, 32800, 33600, 33600, 33600, 33728, 33728, 33312, 33312, 33408, 33408, 33408, 33312, 33312, 33312, 33600, 0, 0, 0, 33216, 33312, 33312, 33312, 33312, 33600, 33824, 33824, 33504, 33504, 33088, 33088, 32800, 0, 0, 33312, 33408, 33408, 33600, 0, 0, 0, 33600, 33600, 33504, 33504, 33504, 33504, 33504, 33504, 0, 33312, 0, 0, 0, 0, 0, 0, 0, 33504, 33408, 33504, 33728, 33600, 33600, 33504, 33408, 33504, 33504, 33600, 33600, 32800, 0, 0, 0, 0, 32800, 32800, 35584, 35584, 35584, 35456, 35456, 35456, 35104, 35104, 35008, 34880, 35104, 34880, 34880, 34784, 34784, 34784, 34560, 34336, 34336, 35680, 35680, 35680, 35104, 35104, 35104, 35104, 35008, 35008, 35104, 35232, 35232, 35232, 35232, 35104, 35104, 35104, 34688, 34688, 34880, 34880, 35680, 35584, 35680, 35360, 35232, 35104, 35008, 34880, 34880, 34784, 34880, 34880, 34784, 34784, 34688, 34688, 34784, 34784, 34784, 34688, 34688, 34784, 34560, 34560, 34336, 34016, 33920, 33920, 33824, 33600, 33312, 33312, 32992, 35456, 35104, 32992, 32992, 35360, 35456, 35232, 35232, 35104, 35008, 35360, 35104, 34880, 35008, 35104, 35232, 35360, 35456, 34880, 34880, 35008, 35008, 35232, 35232, 0, 0, 0, 0,
       0, 0, 0, 0, 0, 31936, 31936, 33312, 32512, 32608, 32512, 32512, 33216, 33216, 33216, 33216, 33088, 33216, 33216, 33216, 33216, 33216, 32992, 32992, 32704, 32704, 32800, 32992, 33088, 33088, 32896, 32896, 32704, 32608, 32608, 32512, 32896, 32992, 32992, 33600, 33504, 33408, 33408, 33312, 30688, 30784, 30688, 30784, 30784, 0, 0, 0, 0, 0, 30528, 30272, 0, 0, 0, 0, 30528, 30592, 0, 0, 0, 0, 0, 0, 0, 35584, 35456, 35104, 31488, 31392, 31488, 31584, 31584, 31648, 31648, 31648, 31648, 31744, 31488, 31584, 31392, 31392, 31392, 31488, 31488, 32320, 31840, 31648, 31744, 31648, 31392, 31296, 31296, 32224, 32224, 32224, 31936, 31936, 32128, 32032, 36288, 36416, 31840, 32032, 32128, 32032, 31936, 31840, 31840, 31840, 32032, 32032, 32032, 32032, 32416, 32512, 32512, 32320, 32704, 32800, 32704, 32416, 0, 32416, 32416, 32416, 31744, 31648, 32320, 32320, 32320, 32800, 32800, 32704, 32416, 32416, 32512, 32512, 32512, 32512, 32512, 32224, 32224, 32224, 32800, 32800, 33088, 32992, 32896, 32992, 32800, 32608, 32512, 32512, 33504, 33312, 33216, 32896, 32800, 32800, 32992, 33088, 33216, 33216, 33216, 33216, 33216, 33088, 33088, 32800, 32896, 32896, 33408, 33408, 33312, 33312, 0, 0, 32896, 32992, 33216, 33408, 33408, 33408, 33408, 33312, 33216, 33216, 33216, 32992, 32896, 32992, 0, 0, 0, 0, 33216, 33216, 33216, 33216, 33408, 33600, 33504, 33408, 33408, 33216, 33216, 32800, 32800, 32416, 32416, 32512, 32512, 32800, 32800, 32800, 32896, 35680, 35584, 35584, 35584, 32128, 35008, 35008, 35008, 34880, 34784, 34784, 32992, 33088, 33088, 34688, 34560, 34464, 34464, 34464, 33920, 33920, 33600, 33728, 33728, 33600, 34336, 33824, 33728, 33728, 33824, 33824, 34560, 34464, 34464, 34336, 34336, 34144, 34144, 33728, 33728, 33600, 33600, 33600, 33600, 34144, 34144, 33728, 33728, 34784, 34880, 34784, 34784, 34016, 34464, 34688, 34464, 34464, 34336, 34144, 34016, 33920, 33824, 33728, 33728, 33600, 33600, 33600, 33504, 33216, 33088, 32896, 35232, 35104, 32896, 35232, 35232, 35104, 34464, 34560, 34560, 34336, 34240, 34336, 34688, 34880, 35008, 35008, 33824, 33824, 34880, 34784, 34880, 35008, 34784, 35104, 0, 0, 0, 0,
       0, 0, 0, 32416, 32320, 32128, 32128, 32224, 32320, 32416, 32224, 31744, 31584, 31584, 31584, 32224, 32512, 32608, 33216, 33088, 33088, 33088, 32608, 32608, 31488, 32224, 32800, 32512, 32800, 32320, 32224, 32608, 32608, 32512, 32320, 32320, 32320, 32320, 30080, 30432, 30336, 30432, 30528, 30528, 30592, 30688, 30592, 30592, 30592, 30592, 30592, 30784, 30592, 30528, 30592, 30432, 30528, 30528, 30528, 30432, 30432, 30528, 30432, 30528, 30592, 30432, 30432, 30528, 30688, 31040, 31040, 31040, 31040, 31200, 31200, 31136, 31040, 31584, 31584, 31584, 31392, 31392, 31296, 31200, 31296, 31200, 31200, 31200, 31200, 31136, 31136, 31392, 31392, 31488, 31296, 31136, 30944, 31040, 32032, 31936, 31840, 31648, 31744, 31744, 31840, 31648, 31648, 31648, 31840, 31840, 31744, 31744, 31744, 31744, 31744, 31840, 31936, 31936, 31744, 32128, 31936, 32032, 31840, 31840, 31840, 31744, 32416, 32320, 32128, 31744, 31744, 31648, 31936, 32128, 32032, 32128, 31936, 31744, 31840, 31840, 32512, 32416, 32512, 32512, 32416, 31936, 32032, 32224, 32224, 32320, 32320, 32512, 32512, 32512, 32608, 32512, 32416, 32416, 32320, 32416, 32224, 32128, 32224, 32032, 32128, 32128, 32128, 32128, 32128, 32128, 32224, 32512, 32608, 32608, 32704, 32512, 32512, 32512, 32032, 32128, 32224, 0, 32608, 32608, 32608, 32608, 32992, 33088, 33088, 33216, 32992, 32992, 32992, 32800, 32704, 32704, 32704, 32800, 32800, 32896, 32896, 32992, 33088, 33088, 33088, 33408, 33088, 32992, 32992, 32896, 32704, 32608, 32416, 32416, 32416, 32512, 32512, 0, 32800, 32800, 32896, 32896, 35584, 35584, 32032, 32128, 32128, 32896, 32800, 32416, 32512, 32704, 32896, 32896, 32800, 32704, 32608, 32512, 32512, 34144, 33920, 33920, 33920, 33728, 33728, 33600, 33600, 33728, 33824, 33600, 33600, 33312, 33312, 34016, 34016, 34144, 34144, 32224, 33728, 33728, 33728, 33600, 33408, 33504, 33600, 33600, 33728, 33600, 33600, 33600, 33600, 33728, 33600, 33728, 33728, 33728, 33920, 33600, 33728, 33728, 33600, 33088, 33312, 33408, 33408, 33408, 33408, 33408, 33216, 32992, 32896, 32704, 32512, 32416, 32320, 32128, 31936, 31296, 34240, 33920, 33920, 33824, 34016, 34144, 34240, 34240, 33504, 33504, 33504, 33504, 33408, 33408, 34560, 34560, 33088, 0, 0, 0, 0, 0,
       0, 0, 0, 0, 32128, 32032, 31936, 32032, 32032, 32128, 31488, 31200, 31136, 31296, 31392, 31584, 31744, 32896, 32704, 32704, 30944, 31296, 31296, 31296, 31392, 31488, 31488, 32128, 31488, 31296, 31488, 31200, 31200, 32224, 32224, 32224, 32320, 32320, 30272, 30336, 30336, 30432, 30592, 30688, 30592, 30592, 30528, 30432, 30336, 30336, 30336, 30336, 30336, 30432, 30592, 30528, 30528, 30432, 30432, 30336, 30432, 30432, 30432, 30432, 30432, 30336, 30336, 30336, 30432, 30848, 30848, 30848, 30784, 30784, 30784, 30784, 30688, 30592, 30592, 30592, 31040, 30944, 30944, 30944, 30944, 31040, 31040, 31136, 31136, 31040, 31040, 31040, 31040, 31040, 31040, 31040, 31040, 31040, 31040, 30848, 31296, 31392, 31488, 31584, 31392, 31392, 31392, 31392, 31488, 31488, 31488, 31648, 31584, 31648, 31648, 31648, 31648, 31584, 31392, 31040, 31040, 31296, 31648, 31648, 31584, 31392, 31392, 31488, 31648, 31648, 31584, 31584, 31648, 31744, 31648, 31648, 31648, 31584, 31648, 31744, 31648, 31648, 30944, 31040, 31744, 31648, 31744, 31744, 31936, 32032, 31936, 31936, 32032, 32032, 32128, 32320, 32320, 32320, 32224, 32224, 32032, 32032, 32032, 31936, 32032, 32032, 32032, 32032, 32032, 32032, 32032, 32032, 32320, 32320, 32320, 32224, 32032, 32032, 32032, 32128, 32224, 32416, 32320, 32416, 32416, 32320, 32224, 32032, 32032, 32704, 32704, 32800, 32704, 32512, 32416, 32320, 32320, 32416, 32416, 32416, 32416, 32416, 32320, 32416, 32608, 32704, 32608, 32512, 32512, 32416, 32416, 32416, 32320, 32320, 32320, 32224, 32320, 32128, 32800, 32800, 32800, 32800, 35360, 32032, 32032, 32032, 32032, 32704, 32512, 32320, 32416, 32512, 32704, 32800, 32608, 32608, 32416, 32416, 32416, 32512, 32608, 32608, 32320, 32128, 32128, 32128, 32224, 32224, 32512, 32512, 32992, 32992, 32992, 32992, 32320, 32320, 32320, 32224, 32224, 33600, 33504, 33504, 33504, 33600, 33600, 33728, 33728, 33728, 33600, 33504, 33504, 33504, 33504, 33728, 33728, 33600, 33600, 33504, 33408, 33216, 32992, 32896, 33088, 33216, 33216, 33216, 32992, 32992, 32896, 32896, 32704, 32608, 32416, 32224, 32128, 31936, 31840, 31392, 33824, 33728, 33728, 33312, 33216, 33088, 33088, 33088, 33216, 33216, 33408, 33408, 33216, 33216, 33216, 33088, 33088, 32992, 0, 0, 0, 0,
       0, 0, 0, 0, 0, 0, 31040, 31040, 30592, 30784, 31136, 31136, 31136, 31136, 31200, 31200, 31200, 31136, 30848, 30848, 30944, 31200, 31200, 31200, 31296, 31200, 30944, 30784, 31040, 31136, 31296, 31200, 31136, 31040, 31040, 32704, 32704, 32704, 30080, 30176, 30176, 30272, 30272, 30272, 30336, 30176, 30176, 30272, 30176, 30176, 30080, 30016, 30080, 30080, 30272, 30272, 30272, 30272, 30272, 30336, 30336, 30336, 30272, 30272, 30272, 30272, 30272, 30176, 30272, 30336, 30336, 30336, 30528, 30432, 30432, 30528, 30528, 30432, 30432, 30432, 30592, 30592, 30688, 30688, 30592, 30592, 30336, 30432, 30848, 30848, 30784, 30688, 30688, 30688, 30784, 30688, 30688, 30688, 30688, 30688, 30688, 30784, 30592, 30848, 30848, 30688, 31136, 30944, 30848, 30848, 31040, 31040, 31296, 31392, 31392, 31200, 31040, 31040, 30944, 30944, 31040, 31040, 31040, 31200, 31200, 31200, 31200, 31200, 31136, 31200, 31392, 31392, 31488, 31584, 31392, 31392, 31296, 31392, 31584, 31584, 31648, 31136, 31040, 31040, 31040, 31392, 31392, 31648, 31584, 31392, 31584, 31648, 31744, 31584, 31136, 31296, 31200, 31296, 31744, 31936, 31648, 31744, 31840, 31840, 31840, 31744, 31936, 31936, 31936, 31936, 31936, 31840, 32032, 32032, 31840, 31936, 31840, 31840, 31840, 31840, 31840, 31936, 31936, 32032, 32224, 32128, 31936, 31840, 31744, 31744, 31744, 31584, 31840, 31936, 31936, 32032, 32128, 32032, 32128, 32128, 32032, 32032, 32128, 32032, 32032, 31136, 32224, 32224, 32224, 32224, 32224, 32128, 32032, 32032, 32032, 31936, 31936, 31840, 31840, 31648, 31584, 31584, 31648, 31936, 31936, 31744, 31840, 31744, 31648, 31936, 32320, 32416, 32128, 32608, 32608, 31744, 32320, 32320, 32320, 32416, 32416, 32320, 32320, 31936, 31840, 31744, 31840, 31744, 32224, 32224, 32224, 31584, 31840, 31392, 32320, 32320, 32224, 32128, 31936, 31744, 31744, 31744, 31744, 32128, 31936, 31648, 31392, 31392, 33504, 33504, 31936, 31936, 32032, 31936, 32032, 32224, 32224, 32320, 32320, 32608, 32512, 32512, 32608, 32896, 32800, 32320, 32224, 31936, 32032, 32512, 32320, 32320, 32224, 32032, 32032, 31840, 31744, 31488, 31296, 33408, 33216, 33088, 33088, 32896, 33088, 32896, 32896, 32992, 32992, 32992, 32896, 32992, 32992, 32992, 32992, 32896, 0, 0, 0, 0,
       0, 0, 0, 0, 0, 0, 30272, 30688, 30432, 30432, 31040, 31040, 31040, 31040, 31040, 31136, 31136, 31040, 30784, 30688, 30784, 30848, 31040, 31200, 31200, 31040, 30848, 30688, 30688, 30784, 31040, 31040, 31040, 30944, 31040, 31040, 32800, 33088, 29920, 29920, 29856, 29856, 29440, 29536, 29536, 29696, 29760, 29920, 29920, 29920, 29856, 29856, 29856, 29856, 29760, 29920, 29920, 29920, 30176, 30176, 30272, 30080, 30080, 30080, 29920, 29920, 29920, 29920, 29920, 29920, 29920, 29920, 29760, 30016, 30080, 30080, 30176, 30176, 30176, 30272, 30272, 30336, 30336, 30336, 30272, 30176, 30272, 30272, 30272, 30592, 30528, 30432, 30528, 30528, 30592, 30528, 30528, 30432, 30528, 30592, 30592, 30528, 30432, 30432, 30272, 30528, 30592, 30528, 30592, 30592, 30592, 30432, 30336, 30432, 30336, 30688, 30784, 30784, 30688, 30784, 30688, 30688, 30688, 30688, 30784, 30848, 30848, 30848, 30848, 30944, 30944, 31200, 31200, 31200, 31136, 31040, 31040, 30944, 30432, 30784, 30944, 30848, 30944, 30944, 30944, 31040, 31136, 31040, 31040, 31040, 30944, 31040, 31040, 31040, 31136, 31040, 31136, 31040, 31040, 31488, 31584, 31392, 31488, 31488, 31488, 31584, 31584, 30784, 30944, 30944, 30944, 31648, 31392, 31584, 31584, 31584, 31488, 31584, 31488, 31488, 31488, 31488, 31584, 31744, 31488, 31296, 31392, 31584, 31584, 31648, 31488, 31392, 31392, 31392, 31840, 31840, 31936, 31488, 31296, 31392, 31392, 31296, 31648, 31648, 30944, 31136, 31136, 31040, 31136, 31488, 31744, 31744, 31744, 31648, 31648, 31584, 31488, 31392, 31392, 31392, 31392, 31392, 31488, 31392, 31488, 31392, 31488, 31392, 31392, 31488, 31488, 31584, 31488, 31584, 31584, 31584, 31584, 31648, 31648, 31648, 31584, 31584, 31648, 31744, 31648, 31648, 31648, 31648, 31648, 31648, 31744, 31584, 31840, 31392, 31392, 31744, 31744, 31840, 31744, 31648, 31648, 31648, 31648, 32032, 31840, 31648, 31584, 31488, 31488, 31488, 31584, 31584, 31648, 31648, 31744, 31744, 31840, 31936, 31936, 32032, 32224, 31936, 32128, 31936, 31936, 32128, 32128, 32032, 31936, 31936, 31840, 31936, 31936, 31840, 31744, 31648, 31488, 31296, 31136, 31040, 30848, 32896, 32896, 32800, 32992, 32800, 32704, 32800, 32704, 32608, 32608, 32608, 32608, 31936, 32704, 32704, 0, 0, 0, 0,
       0, 0, 0, 0, 0, 0, 0, 30592, 30272, 30080, 30176, 30080, 30432, 30432, 30592, 29856, 29856, 29696, 30592, 30592, 30592, 30528, 30080, 30944, 30944, 40288, 40160, 30432, 30336, 30272, 30848, 30944, 30944, 30944, 30944, 32896, 29056, 29120, 29120, 29216, 29376, 29440, 29376, 29376, 29376, 29440, 29536, 29600, 29536, 29600, 29536, 29696, 29696, 29696, 29696, 29600, 29696, 29696, 29600, 29536, 29376, 29856, 29920, 29536, 29696, 29600, 29760, 29760, 29760, 29760, 29760, 29760, 29696, 29696, 29696, 29760, 29856, 29856, 30016, 29856, 30016, 30016, 29856, 29856, 29920, 29920, 29920, 29920, 29920, 29920, 30080, 30080, 30176, 30176, 30272, 30176, 30272, 30272, 30272, 30336, 30272, 30272, 30272, 30272, 30272, 30336, 30080, 30176, 30272, 30272, 30336, 30336, 30272, 30336, 30336, 30336, 30336, 30336, 30336, 30528, 30528, 30528, 30528, 30528, 30528, 30592, 30592, 30688, 30592, 30688, 30848, 30592, 30528, 30528, 30784, 30784, 30784, 30688, 30528, 30592, 30528, 30592, 30688, 30784, 30688, 30688, 30784, 30848, 30784, 30784, 30848, 30688, 30784, 30944, 31040, 31040, 31040, 30848, 30784, 30784, 30272, 30272, 30272, 30944, 30944, 30944, 30944, 30784, 30688, 30688, 30688, 30688, 30784, 30848, 30944, 30944, 30848, 31136, 31040, 30944, 31040, 30944, 30944, 30944, 31040, 31136, 31136, 31040, 31040, 31296, 31296, 31296, 31296, 31296, 31296, 30688, 31136, 31136, 31136, 31200, 31200, 31200, 31136, 31136, 30944, 30944, 30944, 30944, 31040, 31040, 31136, 31136, 31136, 30848, 30848, 31296, 31392, 31296, 31200, 31200, 31136, 31200, 31296, 31296, 31296, 31296, 31296, 31296, 31200, 31200, 31200, 31200, 31296, 31296, 31392, 31488, 31488, 31392, 31296, 31136, 31040, 31200, 31392, 31488, 31488, 31488, 31488, 31488, 31200, 31200, 31296, 31392, 31392, 31296, 31392, 31392, 31488, 31648, 31584, 31584, 31584, 31648, 31648, 31840, 31840, 31840, 31648, 31584, 31584, 31392, 31392, 31392, 31392, 31488, 31584, 31584, 31584, 31584, 31392, 31296, 31296, 31488, 31488, 31488, 31488, 31584, 31584, 31584, 31488, 31296, 31296, 31296, 31744, 31744, 31584, 31296, 31200, 31136, 31040, 30944, 30784, 30688, 30592, 30592, 30528, 30336, 30336, 32416, 32416, 32320, 32320, 32320, 32128, 31936, 31936, 31488, 0, 0, 0, 0,
       0, 0, 0, 0, 0, 0, 0, 30272, 30016, 29920, 30016, 29920, 29920, 29856, 29696, 29600, 29696, 29696, 29440, 30080, 30080, 30016, 29856, 29760, 29760, 29696, 40160, 39840, 39840, 30080, 30592, 30592, 30784, 28448, 30784, 28992, 28992, 28992, 28896, 28992, 29056, 29280, 29280, 29280, 29280, 29280, 29280, 29216, 29216, 29280, 29120, 29440, 29536, 29536, 29536, 29120, 29440, 29280, 29280, 29216, 29120, 29120, 29280, 29280, 29376, 29280, 29280, 29280, 29216, 29600, 29600, 29536, 29600, 29600, 29536, 29600, 29440, 29440, 29600, 29600, 29600, 29600, 29600, 29696, 29760, 29856, 29856, 29856, 29696, 29600, 29696, 29760, 29920, 29856, 29760, 29920, 29920, 30080, 30016, 29920, 29920, 29760, 29696, 29696, 29760, 29760, 29920, 30016, 29920, 30016, 30080, 30176, 30272, 30272, 30272, 30176, 30016, 30016, 29920, 30016, 30176, 30272, 30272, 30272, 30016, 30272, 30336, 30336, 30336, 30336, 30272, 30336, 30272, 30272, 30016, 30272, 30336, 30432, 30432, 30432, 30272, 30080, 30080, 30080, 30432, 30336, 30016, 30432, 30528, 30528, 30432, 30432, 30272, 30336, 30336, 30592, 30592, 30592, 30528, 30336, 30272, 30272, 30272, 30784, 30848, 30848, 30528, 30336, 30528, 30336, 30336, 30432, 30592, 30688, 30688, 30688, 30592, 30592, 30592, 30848, 30944, 30848, 30848, 30592, 30592, 30688, 30784, 30688, 30848, 30848, 30592, 31136, 30688, 30688, 30592, 30592, 30592, 30688, 30784, 30944, 30784, 30784, 30272, 29856, 30848, 30848, 30784, 30784, 30784, 30848, 31040, 30944, 30784, 30528, 30528, 30592, 30592, 31136, 31136, 30944, 30944, 31040, 31136, 31136, 31136, 31136, 31136, 31136, 31040, 30944, 30944, 31040, 31136, 31040, 30944, 30848, 31040, 30944, 30944, 31040, 30944, 30848, 30688, 30848, 31200, 31296, 30944, 30784, 30848, 30944, 31136, 31136, 31136, 31040, 30944, 31040, 31200, 31392, 31296, 31200, 31200, 30784, 30784, 30848, 30848, 31296, 31200, 31296, 31200, 31200, 31296, 31296, 31296, 31296, 31296, 31200, 31296, 31200, 31200, 31200, 31200, 31136, 31040, 30944, 31136, 31200, 31200, 31296, 31200, 31200, 31200, 31136, 30848, 30848, 30848, 30848, 30944, 30944, 30848, 30784, 30592, 30592, 30528, 30528, 30432, 30016, 29856, 29856, 31840, 31840, 31936, 32128, 31840, 31744, 31392, 31392, 0, 0, 0, 0,
       0, 0, 0, 0, 0, 0, 0, 0, 29600, 29440, 29600, 29600, 29760, 29696, 29536, 29440, 29440, 29440, 29440, 28896, 28896, 29440, 29536, 29696, 29760, 29760, 39840, 39712, 39712, 29760, 29760, 28160, 28384, 28384, 28512, 28672, 28832, 28896, 28832, 28832, 28672, 28672, 28672, 28992, 28992, 28896, 28832, 28832, 28992, 28992, 28992, 28992, 28992, 28896, 28992, 28992, 29056, 29056, 28992, 28992, 28896, 28896, 28896, 28992, 29056, 29056, 29216, 29056, 29056, 29056, 29056, 29120, 29120, 29216, 29216, 29280, 29120, 29056, 29056, 28992, 29056, 29440, 29440, 29440, 29536, 29440, 29440, 29536, 29216, 29120, 29120, 29216, 29536, 29600, 29536, 29536, 29376, 29376, 29600, 29440, 29440, 29440, 29536, 29440, 29440, 29536, 29536, 29696, 29760, 29760, 29856, 29920, 29920, 29056, 29920, 29920, 29760, 29696, 29696, 29600, 29696, 29600, 29920, 29856, 29696, 29696, 29696, 29696, 30016, 30016, 30016, 30016, 29920, 29760, 29760, 29760, 29760, 29760, 29696, 29696, 30016, 29920, 29920, 29856, 29920, 29920, 29856, 29760, 29696, 29856, 30176, 30080, 30080, 30080, 30176, 30336, 30336, 30272, 30272, 30080, 30176, 30272, 30272, 30432, 30432, 29920, 29920, 30176, 30336, 30272, 30272, 30176, 30176, 29376, 29280, 30432, 30432, 30528, 30528, 30784, 30272, 29920, 30080, 30016, 30080, 30080, 29600, 29600, 29856, 29856, 30528, 30528, 30528, 30432, 30432, 30336, 30336, 30336, 30272, 30336, 30272, 30272, 30272, 29856, 29760, 29760, 30432, 30432, 30336, 30272, 30272, 30592, 30592, 30528, 30528, 30528, 30336, 30272, 30272, 30784, 30848, 30848, 30848, 30784, 30784, 30688, 30688, 30592, 30784, 30592, 30528, 30784, 30784, 30848, 29920, 30272, 30336, 30688, 30688, 30784, 30592, 30432, 30432, 30528, 30432, 30528, 30528, 30528, 30592, 30432, 30336, 30336, 30336, 30592, 30688, 30848, 30272, 30272, 30688, 30592, 30592, 30592, 30528, 30528, 30528, 30528, 30688, 30592, 30848, 30848, 31040, 31136, 31136, 31040, 31136, 30944, 30944, 30944, 30848, 30848, 30848, 30944, 30944, 30848, 30944, 30592, 30528, 30528, 31040, 31040, 30784, 30784, 30592, 30784, 30688, 30688, 30784, 30688, 30688, 30272, 30272, 30272, 30176, 30272, 30016, 29856, 29760, 29600, 29536, 29376, 29216, 29056, 29056, 30848, 30848, 31136, 0, 0, 0, 0,
       0, 0, 0, 0, 0, 0, 0, 0, 29120, 29120, 29120, 29376, 29696, 29600, 29536, 29440, 29376, 29216, 29056, 28896, 28736, 28832, 28832, 41344, 40896, 40160, 39840, 39712, 39712, 39840, 27872, 28000, 28160, 28224, 28384, 28320, 28448, 28512, 28672, 28608, 28448, 28448, 28384, 28448, 28448, 28512, 28608, 28672, 28608, 28512, 28608, 28512, 28512, 28512, 28512, 28608, 28512, 28736, 28736, 28736, 28736, 28736, 28672, 28736, 28736, 28736, 29056, 29056, 29056, 28896, 28736, 28992, 28896, 28896, 28896, 28992, 28896, 28832, 28832, 28832, 28992, 28992, 29056, 29120, 29216, 29216, 29216, 29216, 29216, 29120, 29056, 29056, 28992, 29056, 29120, 29056, 29120, 29280, 29280, 29216, 29216, 29120, 29120, 29120, 29120, 29216, 29120, 29376, 29376, 29376, 29120, 29056, 29056, 29056, 29216, 29280, 29536, 29440, 29440, 29376, 29376, 29376, 29440, 29376, 29440, 29536, 29536, 29440, 29440, 29376, 29376, 29440, 29440, 29536, 29536, 29600, 29600, 29696, 29600, 29600, 29696, 29696, 29760, 29696, 29600, 29440, 29600, 29600, 29600, 29600, 29696, 29920, 29920, 29920, 30016, 29280, 29376, 29440, 29440, 29920, 29920, 30080, 30080, 30080, 29600, 29600, 29600, 29600, 29216, 28992, 29760, 29760, 29760, 29376, 29280, 29280, 29280, 29760, 29760, 29600, 29600, 29856, 29856, 29856, 29760, 29600, 29600, 29600, 29856, 29856, 29856, 29280, 28992, 28992, 30176, 30176, 30016, 30080, 30016, 30016, 30176, 30176, 29696, 29696, 29600, 29600, 29600, 29600, 29600, 29120, 29216, 30336, 30336, 30432, 30432, 30432, 30272, 29920, 29696, 29696, 29696, 30080, 30080, 29920, 29920, 29856, 29760, 29856, 29920, 30272, 30176, 30272, 30016, 29920, 29856, 30016, 30080, 30080, 30176, 30528, 30176, 30272, 30272, 30336, 30176, 30016, 30176, 30176, 30272, 30272, 30176, 30080, 30080, 30176, 30080, 29920, 30016, 29920, 30016, 30336, 30432, 30432, 30432, 30432, 30336, 30176, 30176, 30176, 30176, 30272, 30176, 30080, 30176, 30272, 30272, 30944, 30784, 30336, 30432, 30336, 30528, 30528, 30688, 30528, 30528, 30336, 30336, 30272, 30176, 30080, 30080, 30336, 30432, 30592, 30528, 30432, 29856, 30176, 30176, 29920, 30016, 30016, 29760, 29600, 29536, 29600, 29600, 29536, 29376, 29216, 29056, 28992, 28992, 30784, 30688, 30592, 0, 0, 0, 0,
       0, 0, 0, 0, 28448, 28512, 28512, 28512, 28736, 28736, 28736, 28736, 28512, 28512, 28512, 27936, 27936, 27936, 28608, 28608, 28608, 28608, 28608, 41344, 40736, 40000, 39712, 39712, 39712, 27808, 27872, 27936, 28000, 28096, 28160, 28160, 28000, 28096, 28160, 28224, 28160, 28160, 28160, 28000, 28000, 28320, 28384, 28448, 28384, 28160, 28224, 28320, 28384, 28384, 28384, 28384, 28448, 28448, 28512, 28512, 28512, 28512, 28512, 28608, 28608, 28512, 28224, 28224, 28320, 28448, 28512, 28672, 28672, 28736, 28736, 28736, 28736, 28736, 28736, 28736, 28832, 28736, 28672, 28672, 28608, 28736, 28736, 28672, 28672, 28672, 28672, 28736, 28736, 28736, 28832, 28896, 28896, 28992, 29056, 29056, 29056, 28992, 28992, 28992, 29056, 29056, 29056, 29120, 29120, 29120, 28832, 28736, 28736, 28896, 29056, 29056, 29120, 29216, 29216, 29216, 29120, 29056, 28992, 29216, 29280, 29280, 29376, 29376, 29280, 29216, 29216, 28736, 29216, 29376, 29376, 29376, 29280, 29280, 29280, 29280, 29440, 29440, 29440, 29536, 29440, 29440, 29440, 29440, 29440, 29440, 29280, 29120, 29056, 29376, 29376, 29280, 29280, 29280, 29280, 29280, 29056, 29056, 29120, 29056, 29120, 29216, 29440, 29216, 29216, 28992, 29216, 29280, 29280, 29280, 29120, 29120, 28896, 29600, 29600, 29376, 29056, 29120, 29056, 28992, 28992, 28992, 28992, 29536, 29536, 29536, 28672, 29280, 28992, 28992, 29056, 28992, 29056, 29216, 29216, 29216, 29280, 29280, 29280, 29376, 29376, 29376, 29120, 29280, 29056, 29120, 29216, 28992, 29056, 29120, 30528, 30528, 29280, 29280, 29376, 29440, 29440, 29600, 29760, 29760, 29760, 29696, 29600, 29696, 29600, 29600, 29600, 29280, 29440, 29856, 29856, 29920, 30016, 30176, 30176, 30080, 30080, 30080, 30080, 30176, 30080, 30016, 30016, 30016, 30080, 30080, 30080, 30016, 29760, 29856, 29920, 29920, 29920, 29920, 29856, 29920, 29856, 30016, 30016, 30080, 30176, 30080, 30080, 30016, 30016, 30016, 29920, 29856, 29856, 29920, 29920, 29920, 30176, 30272, 30272, 30176, 30080, 29760, 29760, 29696, 29920, 30080, 30016, 30080, 29920, 29856, 29920, 29920, 30272, 29920, 29920, 29856, 29760, 29760, 29696, 29600, 29760, 29600, 29536, 29440, 29440, 29376, 29280, 29280, 29120, 28992, 28992, 28896, 28832, 28608, 28320, 28096, 0, 0, 0, 0,
       0, 0, 0, 0, 0, 0, 28512, 28448, 28512, 28448, 28384, 28384, 28320, 28224, 28160, 27936, 27936, 27936, 28224, 28160, 28224, 28384, 28448, 28448, 39840, 40000, 39840, 39840, 27648, 27648, 27808, 27808, 27744, 27808, 27808, 27936, 27872, 27872, 27872, 27744, 27456, 27744, 27648, 27808, 27808, 27872, 27872, 27744, 27744, 27872, 27872, 27936, 27936, 27648, 27648, 27936, 28224, 28320, 28320, 28384, 28224, 28160, 28320, 28384, 28448, 28448, 26976, 28224, 28160, 28160, 28160, 28224, 28320, 28224, 28512, 28608, 28448, 28608, 28672, 28608, 28672, 28512, 28160, 28160, 28096, 28096, 28672, 28608, 28512, 28512, 28448, 28608, 28448, 28512, 28384, 28224, 28384, 28448, 28448, 28448, 28448, 28896, 29056, 28896, 28896, 28672, 28512, 28512, 28448, 28384, 28512, 28672, 28736, 28896, 28896, 28832, 28736, 28512, 28736, 28608, 28896, 28672, 28672, 28672, 28672, 28672, 28608, 28608, 28832, 28736, 28832, 28736, 28672, 28512, 28608, 28672, 28672, 28672, 28736, 28736, 28832, 28832, 28832, 28448, 28384, 28384, 29216, 29216, 29216, 29056, 29056, 28992, 28896, 28896, 29216, 29280, 29280, 29216, 29216, 28992, 28992, 29056, 29120, 29120, 29120, 29216, 29056, 28992, 28832, 28832, 28832, 29056, 29216, 29280, 29056, 28992, 28896, 28672, 28672, 28672, 28896, 28896, 28896, 28896, 28896, 29056, 29056, 29376, 29376, 29120, 28672, 29280, 29120, 28896, 29056, 28832, 28832, 28992, 29056, 28992, 29216, 28992, 29120, 29216, 29056, 29056, 29056, 29056, 29056, 29056, 29216, 29056, 29056, 29056, 28992, 28992, 29120, 29216, 29280, 29280, 29280, 29056, 28672, 29536, 29600, 29600, 29536, 29536, 29536, 29440, 29440, 29120, 29056, 29056, 28992, 28992, 28736, 28832, 28832, 28096, 28096, 28896, 28896, 28992, 28832, 29856, 29856, 29856, 29760, 29856, 29856, 29536, 29376, 29280, 29280, 29280, 29856, 29760, 29600, 29536, 29376, 29536, 29600, 29600, 29600, 30080, 30080, 29920, 29856, 29856, 29376, 29600, 29536, 29376, 29440, 29440, 29440, 28736, 29920, 29920, 29760, 29376, 29280, 29216, 29376, 29600, 29600, 29600, 29536, 29600, 29536, 29440, 29280, 29216, 29216, 29536, 29536, 29536, 29440, 29376, 29280, 29280, 29280, 29280, 29216, 29120, 29056, 28896, 28896, 28896, 28896, 28832, 28672, 28448, 28320, 28224, 0, 0, 0, 0 ]
