%YAML:1.0
refImg: !!opencv-matrix
   rows: 60
   cols: 320
   dt: w
   data: [ 1557, 1516, 1516, 1516, 1516, 1536, 1536, 1458, 1564, 1564, 1557, 1557, 1543, 1543, 1458, 1458, 1477, 1477, 1503, 1503, 1509, 1516, 1516, 1516, 1516, 1509, 1509, 1496, 1496, 1496, 1470, 1464, 1529, 1529, 1496, 1496, 1496, 1496, 1496, 1557, 1543, 1543, 1529, 1509, 1509, 1509, 1516, 1523, 1523, 1523, 1523, 1523, 1523, 1509, 1509, 1496, 1496, 1503, 1509, 1509, 1516, 1516, 1516, 1509, 1516, 1503, 1489, 1503, 1503, 1503, 0, 0, 0, 1458, 1458, 1464, 1464, 1470, 1477, 1503, 1503, 1509, 1503, 1489, 1489, 1496, 1516, 1529, 0, 0, 0, 0, 0, 0, 0, 1663, 0, 0, 0, 0, 1509, 1503, 1503, 0, 0, 1503, 0, 0, 0, 0, 0, 1543, 1529, 1543, 1536, 1536, 1509, 1509, 1516, 1516, 1439, 1439, 1439, 1503, 1503, 1503, 0, 0, 0, 1529, 1529, 0, 0, 0, 0, 0, 0, 0, 0, 0, 0, 0, 0, 0, 0, 0, 0, 0, 0, 0, 0, 0, 0, 0, 0, 0, 0, 0, 0, 0, 0, 0, 0, 0, 0, 0, 0, 0, 0, 0, 0, 0, 0, 0, 0, 0, 0, 0, 0, 0, 0, 0, 0, 0, 0, 0, 0, 0, 0, 0, 0, 0, 0, 0, 0, 0, 0, 0, 0, 0, 0, 0, 0, 0, 0, 0, 1489, 0, 0, 0, 0, 0, 1503, 1496, 1509, 1509, 1489, 1483, 1483, 1483, 1496, 1509, 1509, 1496, 1496, 0, 0, 0, 0, 1496, 1496, 1496, 1489, 1470, 1452, 1452, 1452, 1445, 1445, 1470, 1427, 1445, 1445, 1439, 1439, 1439, 1427, 1427, 1427, 1415, 1415, 1410, 1489, 1483, 1470, 1470, 1458, 1458, 1458, 1452, 1452, 1445, 1452, 1445, 1445, 1477, 1470, 1464, 1458, 1458, 1458, 1452, 1452, 1489, 1489, 1489, 1421, 1421, 1445, 1445, 1445, 1452, 1452, 1421, 1421, 1410, 1415, 1410, 1404, 1410, 1410, 1427, 1439, 1439, 1433, 1398, 1387, 1398, 1410, 1415, 1415, 1415, 1433, 1433, 1359, 1359, 1398, 1387, 1387, 1387, 1445, 1445, 1439, 1439, 1433, 1427, 0, 0, 0, 0,
       1483, 1489, 1489, 1464, 1470, 1458, 1452, 1458, 1452, 1445, 1445, 1445, 1445, 1458, 1458, 1458, 1470, 1489, 1503, 1503, 1489, 1509, 1503, 1509, 1509, 1496, 1489, 1483, 1477, 1464, 1470, 1464, 1458, 1458, 1470, 1477, 1483, 1483, 1477, 1445, 1439, 1439, 1439, 1489, 1489, 1496, 1496, 1427, 1427, 1509, 1509, 1503, 1464, 1470, 1470, 1470, 1483, 1489, 1503, 1503, 1503, 1445, 1445, 1483, 1477, 1483, 1470, 1483, 1483, 0, 0, 0, 1427, 1452, 1452, 1458, 1458, 1464, 1464, 1464, 1464, 1439, 1421, 1483, 1489, 1496, 1503, 1503, 0, 0, 0, 0, 0, 0, 0, 0, 0, 0, 0, 0, 0, 0, 0, 0, 0, 0, 0, 0, 0, 0, 0, 0, 0, 0, 1458, 1445, 1458, 1458, 1452, 1458, 1433, 1433, 1421, 1421, 1410, 1410, 0, 0, 0, 0, 0, 0, 0, 0, 0, 0, 0, 0, 0, 0, 0, 0, 0, 0, 0, 0, 0, 0, 0, 0, 0, 0, 0, 0, 0, 0, 0, 0, 0, 0, 0, 0, 0, 0, 0, 0, 0, 0, 0, 0, 0, 0, 0, 0, 0, 0, 0, 0, 0, 0, 0, 0, 0, 0, 0, 0, 0, 0, 0, 0, 0, 0, 0, 0, 0, 0, 0, 0, 0, 0, 0, 0, 0, 0, 0, 0, 0, 0, 0, 0, 0, 0, 0, 1496, 1509, 1509, 1452, 1445, 0, 0, 0, 0, 0, 0, 0, 0, 0, 0, 0, 0, 0, 0, 0, 1445, 1445, 1445, 1452, 1452, 1415, 1415, 1415, 1421, 1421, 1421, 1421, 1421, 1421, 1415, 1410, 1398, 1392, 1387, 1376, 1359, 1359, 1464, 1464, 1322, 1322, 1439, 1439, 1439, 1439, 1433, 1421, 1415, 1415, 1415, 1427, 1427, 1427, 1349, 1370, 1387, 1387, 1398, 1404, 1410, 1421, 1427, 1427, 1427, 1421, 1421, 1415, 1410, 1410, 1404, 1404, 1404, 1398, 1398, 1398, 1398, 1387, 1392, 1387, 1392, 1392, 1398, 1398, 1398, 1381, 1376, 1359, 1359, 1398, 1387, 1387, 1387, 1381, 1376, 1359, 1365, 1410, 1415, 0, 0, 0, 0,
       0, 1427, 1458, 1452, 1445, 1439, 1445, 1445, 1445, 1439, 1439, 1433, 1433, 1445, 1445, 1445, 1439, 1483, 1503, 1496, 1445, 1433, 1458, 1439, 1458, 1464, 1464, 1464, 1464, 1458, 1458, 1458, 1458, 1452, 1452, 1458, 1470, 1464, 1452, 1445, 1445, 1445, 1439, 1445, 1445, 1433, 1433, 1421, 1421, 1421, 1415, 1415, 1458, 1452, 1458, 1458, 1470, 1470, 1470, 1349, 0, 1439, 1439, 1458, 1452, 1452, 1458, 1458, 0, 1343, 1343, 0, 0, 1427, 1433, 1427, 1433, 1445, 1452, 1452, 1445, 1439, 1427, 1427, 1427, 1288, 1288, 0, 0, 0, 0, 0, 0, 0, 0, 0, 0, 0, 0, 0, 0, 0, 0, 0, 0, 0, 0, 0, 0, 0, 0, 0, 0, 0, 0, 1410, 1458, 1458, 0, 1404, 1415, 1415, 1415, 1415, 1398, 1398, 1398, 0, 0, 0, 0, 0, 0, 0, 0, 0, 0, 0, 0, 0, 0, 0, 0, 0, 0, 0, 0, 0, 0, 0, 0, 0, 0, 0, 0, 0, 0, 0, 0, 0, 0, 0, 0, 0, 0, 0, 0, 0, 0, 0, 0, 0, 0, 0, 0, 0, 0, 0, 0, 0, 0, 0, 0, 0, 0, 0, 0, 0, 0, 0, 0, 0, 0, 0, 0, 0, 0, 0, 0, 0, 0, 0, 0, 0, 0, 0, 0, 0, 0, 0, 0, 0, 0, 0, 0, 1392, 1392, 0, 0, 0, 0, 0, 0, 0, 0, 0, 0, 0, 0, 0, 0, 0, 0, 0, 1333, 1333, 1328, 1415, 1415, 1415, 1410, 1410, 1398, 1410, 1415, 1415, 1415, 1410, 1392, 1381, 1381, 1381, 1365, 1359, 1354, 1354, 1322, 1322, 1322, 1322, 1338, 1338, 1338, 1338, 1338, 1398, 1398, 1398, 1365, 1365, 1328, 1349, 1370, 1376, 1387, 1387, 1376, 1392, 1381, 1370, 1370, 1349, 1349, 1398, 1398, 1392, 1398, 1392, 1392, 1392, 1387, 1387, 1387, 1359, 1370, 1387, 1387, 1333, 1333, 1381, 1387, 1387, 1376, 1359, 1354, 1359, 1359, 1381, 1376, 1370, 1370, 1365, 1354, 1354, 1349, 1349, 0, 0, 0, 0,
       1398, 1410, 1398, 1433, 1427, 1421, 1427, 1433, 1439, 1433, 1433, 1427, 1415, 1445, 1452, 1439, 1433, 1433, 1370, 1370, 1370, 1458, 1458, 1464, 1421, 1415, 1421, 1415, 1445, 1452, 1452, 1452, 1458, 1458, 1439, 1439, 1439, 1433, 1433, 1433, 1433, 1433, 1433, 1376, 1376, 1381, 1387, 1410, 1410, 1404, 1404, 1392, 1392, 1404, 1398, 1398, 1398, 1398, 1349, 1349, 1349, 1433, 1433, 1439, 1445, 1439, 1439, 1338, 1343, 1343, 0, 1312, 0, 1415, 1415, 1410, 1415, 1415, 1427, 1427, 1439, 1439, 1433, 1433, 0, 0, 1288, 0, 0, 0, 0, 0, 0, 0, 0, 0, 0, 0, 0, 0, 0, 0, 0, 0, 0, 0, 0, 0, 0, 0, 0, 0, 0, 0, 0, 0, 0, 0, 0, 0, 1404, 1404, 1410, 1410, 1392, 1404, 1404, 0, 0, 0, 0, 0, 0, 0, 0, 0, 0, 0, 0, 0, 0, 0, 0, 0, 0, 0, 0, 0, 0, 0, 0, 0, 0, 0, 0, 0, 0, 0, 0, 0, 0, 0, 0, 0, 0, 0, 0, 0, 0, 0, 0, 0, 0, 0, 0, 0, 0, 0, 0, 0, 0, 0, 0, 0, 0, 0, 0, 0, 0, 0, 0, 0, 0, 0, 0, 0, 0, 0, 0, 0, 0, 0, 0, 0, 0, 0, 0, 0, 0, 0, 0, 0, 0, 0, 0, 1354, 1359, 0, 0, 0, 0, 0, 0, 0, 0, 0, 0, 0, 0, 0, 0, 0, 0, 0, 0, 0, 1328, 1333, 1333, 1322, 1392, 1392, 1376, 1387, 1398, 1410, 0, 1338, 1370, 1365, 1365, 1354, 1349, 1349, 1338, 1317, 1302, 1307, 1307, 1268, 1268, 1338, 1338, 1338, 1338, 1343, 1349, 1338, 1338, 1333, 1328, 1392, 1376, 1376, 1292, 1370, 1370, 1370, 1370, 1365, 1365, 1349, 1349, 1328, 1328, 1387, 1387, 1387, 1387, 1387, 1387, 1288, 1283, 1354, 1354, 1354, 1328, 1322, 1322, 1370, 1376, 1370, 1359, 1343, 1333, 1312, 1312, 1292, 1288, 1349, 1349, 1343, 1343, 1349, 1338, 1338, 0, 0, 0, 0,
       1392, 1392, 1381, 1370, 1370, 1404, 1370, 1410, 1433, 1427, 1427, 1370, 1370, 1365, 1365, 1365, 1370, 1370, 1365, 1365, 1365, 1370, 1477, 1410, 1415, 1410, 1410, 1404, 1415, 1415, 1317, 1322, 1359, 1359, 1354, 1370, 1370, 1415, 1415, 1415, 1328, 1333, 1365, 1365, 1365, 1365, 1365, 1370, 1387, 1387, 1381, 1387, 1381, 1381, 1381, 1381, 1376, 1359, 1349, 1349, 1349, 1439, 1439, 1292, 1292, 1292, 1292, 1338, 1338, 1343, 1328, 1312, 1312, 1302, 1292, 1404, 1410, 1410, 1410, 1307, 1302, 1302, 1297, 1297, 1288, 1288, 1288, 1288, 1283, 0, 0, 0, 0, 0, 0, 0, 0, 0, 0, 0, 0, 0, 0, 0, 0, 0, 0, 1288, 1292, 0, 0, 0, 0, 0, 0, 0, 0, 0, 0, 0, 1398, 0, 1404, 1404, 0, 0, 0, 0, 0, 0, 0, 0, 0, 0, 0, 0, 0, 0, 0, 0, 0, 0, 0, 0, 0, 0, 0, 0, 0, 0, 0, 0, 0, 0, 0, 0, 0, 0, 0, 0, 0, 0, 0, 0, 0, 0, 0, 0, 0, 0, 0, 0, 0, 0, 0, 0, 0, 0, 0, 0, 0, 0, 0, 0, 0, 0, 0, 0, 0, 0, 0, 0, 0, 0, 0, 0, 0, 0, 0, 0, 0, 0, 0, 0, 0, 0, 0, 0, 0, 0, 0, 0, 0, 0, 0, 0, 0, 0, 0, 0, 0, 0, 0, 0, 0, 0, 0, 0, 0, 0, 0, 0, 1333, 1333, 1333, 1333, 1328, 1333, 1333, 1322, 1328, 1333, 1333, 1297, 1307, 1307, 0, 0, 0, 0, 0, 1349, 1343, 1354, 1354, 1288, 1288, 1292, 1283, 1268, 1268, 1343, 1338, 1338, 1333, 1333, 1333, 1328, 1328, 1297, 1292, 1297, 1292, 1292, 1292, 1292, 1292, 1297, 1297, 1322, 1322, 1322, 1322, 1328, 1328, 1268, 1354, 1354, 1297, 1292, 1292, 1288, 1283, 1283, 1292, 1292, 1302, 1312, 1302, 1392, 1278, 1273, 1349, 1333, 1317, 1307, 1297, 1292, 1288, 1288, 1317, 1317, 1333, 1322, 1317, 1322, 0, 0, 0, 0,
       1387, 1354, 1354, 1349, 1338, 1322, 1354, 1365, 1370, 1370, 1349, 1349, 1349, 1349, 1349, 1333, 1333, 1359, 1359, 1359, 1354, 1354, 1338, 1328, 1328, 1328, 1328, 1328, 1328, 1317, 1317, 1322, 1322, 1343, 1338, 1349, 1338, 1338, 1307, 1328, 1328, 1333, 1338, 1343, 1354, 1354, 1349, 1343, 1343, 1343, 1343, 1297, 1359, 1359, 1365, 1343, 1354, 1349, 1349, 1354, 1354, 1259, 1278, 1278, 1288, 1288, 1292, 1288, 1288, 1292, 1307, 1302, 1302, 1297, 1288, 1288, 1292, 1302, 1307, 1302, 1297, 1297, 1297, 1292, 1288, 1288, 1283, 1288, 1283, 1288, 1283, 1283, 1283, 0, 1278, 1283, 0, 0, 1288, 0, 0, 0, 0, 0, 1278, 1278, 1278, 1278, 1273, 1283, 0, 0, 0, 0, 0, 0, 0, 0, 0, 0, 0, 0, 1370, 1365, 0, 0, 0, 0, 0, 0, 0, 0, 0, 0, 0, 0, 0, 0, 0, 0, 0, 0, 0, 0, 0, 0, 0, 0, 0, 0, 0, 0, 0, 0, 0, 0, 0, 0, 0, 0, 0, 0, 0, 0, 0, 0, 0, 0, 0, 0, 0, 0, 0, 0, 0, 0, 0, 0, 0, 0, 0, 0, 0, 0, 0, 0, 0, 0, 0, 0, 0, 0, 0, 0, 0, 0, 0, 0, 0, 0, 0, 0, 0, 0, 0, 0, 0, 0, 0, 0, 0, 0, 0, 0, 0, 0, 0, 0, 0, 0, 0, 0, 0, 0, 0, 0, 0, 0, 0, 0, 0, 1312, 1322, 1322, 1322, 1328, 1328, 1328, 1328, 1312, 1317, 1317, 1292, 1297, 1297, 0, 0, 0, 0, 0, 0, 1322, 1322, 1322, 1278, 1273, 1273, 1278, 1273, 1259, 1250, 1241, 1338, 1338, 1333, 1328, 1328, 1292, 1288, 1288, 1288, 1288, 1288, 1288, 1288, 1288, 1288, 1288, 1278, 1278, 1273, 1297, 1288, 1278, 1273, 1268, 1273, 1288, 1288, 1288, 1288, 1278, 1278, 1273, 1273, 1278, 1278, 1297, 1392, 1392, 1268, 1259, 1255, 1250, 1312, 1297, 1283, 1283, 1278, 1273, 1302, 1302, 1283, 1278, 1283, 1292, 0, 0, 0, 0,
       1307, 1343, 1343, 1338, 1317, 1307, 1307, 1283, 1283, 1322, 1322, 1328, 1333, 1333, 1333, 1322, 1322, 1322, 1338, 1343, 1343, 1343, 1328, 1322, 1322, 1322, 1328, 1328, 1322, 1317, 1317, 1307, 1312, 1328, 1312, 1343, 1343, 1268, 1307, 1307, 1312, 1322, 1328, 1328, 1328, 1328, 1328, 1312, 1312, 1288, 1288, 1297, 1297, 1317, 1322, 1322, 1333, 1333, 1333, 1241, 1241, 1259, 1264, 1268, 1273, 1278, 1278, 1268, 1273, 1273, 1268, 1273, 1278, 1278, 1283, 1278, 1278, 1268, 1268, 1273, 1278, 1283, 1283, 1283, 1283, 1283, 1283, 1283, 1283, 1283, 1278, 1278, 1278, 1273, 1268, 1268, 1268, 1278, 1283, 1278, 1273, 1264, 1264, 1278, 1278, 1273, 1278, 1273, 1268, 1268, 0, 0, 0, 0, 0, 0, 0, 0, 0, 0, 0, 0, 0, 0, 0, 0, 0, 0, 0, 0, 0, 0, 0, 0, 0, 0, 0, 0, 0, 0, 0, 0, 0, 0, 0, 0, 0, 0, 0, 0, 0, 0, 0, 0, 0, 0, 0, 0, 0, 0, 0, 0, 0, 0, 0, 0, 0, 0, 0, 0, 0, 0, 0, 0, 0, 0, 0, 0, 0, 0, 0, 0, 0, 0, 0, 0, 0, 0, 0, 0, 0, 0, 0, 0, 0, 0, 0, 0, 0, 0, 0, 0, 0, 0, 0, 0, 0, 0, 0, 0, 0, 0, 0, 0, 0, 0, 0, 0, 0, 0, 0, 0, 0, 0, 0, 0, 0, 0, 0, 0, 0, 0, 1312, 1312, 1312, 1317, 1312, 1312, 1312, 1283, 1283, 1288, 1288, 1292, 1292, 0, 0, 0, 0, 0, 1202, 1202, 1264, 1264, 1259, 1259, 1264, 1255, 1245, 1250, 1232, 1227, 1219, 1214, 1214, 1219, 1288, 1283, 1278, 1278, 1283, 1259, 1259, 1259, 1283, 1283, 1283, 1278, 1273, 1268, 1259, 1255, 1255, 1255, 1250, 1255, 1273, 1283, 1288, 1288, 1283, 1273, 1268, 1268, 1268, 1268, 1264, 1259, 1392, 1392, 1255, 1255, 1250, 1245, 1250, 1236, 1255, 1264, 1273, 1268, 1268, 1206, 1250, 1250, 1245, 1241, 0, 0, 0, 0,
       1278, 1273, 1273, 1273, 1273, 1273, 1273, 1283, 1283, 1278, 1288, 1273, 1312, 1312, 1317, 1317, 1322, 1322, 1333, 1343, 1338, 1328, 1317, 1302, 1297, 1307, 1312, 1317, 1317, 1307, 1292, 1302, 1302, 1297, 1292, 1273, 1273, 1268, 1268, 1307, 1307, 1307, 1317, 1317, 1288, 1283, 1288, 1283, 1283, 1288, 1288, 1292, 1292, 1292, 1292, 1317, 1317, 1227, 1227, 1232, 1245, 1255, 1255, 1259, 1259, 1255, 1250, 1250, 1250, 1255, 1259, 1264, 1259, 1255, 1255, 1250, 1250, 1255, 1255, 1264, 1264, 1259, 1264, 1264, 1264, 1259, 1273, 1268, 1278, 1273, 1264, 1268, 1255, 1255, 1259, 1259, 1259, 1259, 1264, 1264, 1264, 1232, 1227, 1278, 1278, 1273, 1273, 1264, 1259, 0, 0, 0, 0, 0, 0, 0, 0, 0, 0, 0, 0, 0, 0, 0, 0, 0, 0, 0, 0, 0, 0, 0, 0, 0, 0, 0, 0, 0, 0, 0, 0, 0, 0, 0, 0, 0, 0, 0, 0, 0, 0, 0, 0, 0, 0, 0, 0, 0, 0, 0, 0, 0, 0, 0, 0, 0, 0, 0, 0, 0, 0, 0, 0, 0, 0, 0, 0, 0, 0, 0, 0, 0, 0, 0, 0, 0, 0, 0, 0, 0, 0, 0, 0, 0, 0, 0, 0, 0, 0, 0, 0, 0, 0, 0, 0, 0, 0, 0, 0, 0, 0, 0, 0, 0, 0, 0, 0, 0, 0, 0, 0, 0, 0, 0, 0, 0, 0, 1181, 0, 0, 0, 0, 0, 1181, 1177, 1177, 1177, 1181, 1173, 1268, 1268, 1255, 1255, 1255, 1255, 0, 0, 0, 0, 0, 0, 1202, 1202, 1193, 1185, 1250, 1250, 1241, 1232, 1236, 1223, 1227, 1223, 1219, 1219, 1283, 1283, 1283, 1273, 1273, 1255, 1250, 1250, 1250, 1250, 1250, 1219, 1219, 1219, 1223, 1250, 1250, 1245, 1245, 1236, 1241, 1241, 1288, 1288, 1283, 1283, 1264, 1236, 1245, 1241, 1236, 1250, 1241, 1236, 1236, 1223, 1241, 1236, 1232, 1227, 1223, 1232, 1232, 1232, 1206, 1206, 1206, 1227, 1232, 1236, 1232, 0, 0, 0, 0,
       1264, 1268, 1268, 1264, 1268, 1264, 1264, 1264, 1264, 1268, 1259, 1264, 1264, 1268, 1255, 1255, 1236, 1241, 1236, 1250, 1250, 1264, 1278, 1278, 1273, 1264, 1259, 1268, 1264, 1255, 1288, 1250, 1297, 1268, 1264, 1264, 1264, 1264, 1264, 1264, 1232, 1232, 1273, 1273, 1273, 1268, 1273, 1268, 1268, 1273, 1268, 1149, 1149, 1157, 1169, 1227, 1227, 1227, 1227, 1236, 1241, 1245, 1245, 1241, 1236, 1236, 1236, 1236, 1236, 1232, 1236, 1232, 1245, 1241, 1241, 1241, 1232, 1241, 1241, 1219, 1245, 1236, 1241, 1236, 1236, 1236, 1232, 1232, 1232, 1227, 1236, 1236, 1245, 1245, 1236, 1241, 1241, 1232, 1232, 1232, 1232, 1232, 1227, 1223, 1223, 1223, 1223, 1236, 1236, 1236, 0, 0, 0, 0, 0, 0, 0, 0, 0, 0, 0, 0, 0, 0, 0, 0, 0, 0, 0, 0, 0, 0, 0, 0, 0, 0, 0, 0, 0, 0, 0, 0, 0, 0, 0, 0, 0, 0, 0, 0, 0, 0, 0, 0, 0, 0, 0, 0, 0, 0, 0, 0, 0, 0, 0, 0, 0, 0, 0, 0, 0, 0, 0, 0, 0, 0, 0, 0, 0, 0, 0, 0, 0, 0, 0, 0, 0, 0, 0, 0, 0, 0, 0, 0, 0, 0, 0, 0, 0, 0, 0, 0, 0, 0, 0, 0, 0, 0, 0, 0, 0, 1185, 1181, 1185, 0, 0, 0, 0, 0, 0, 0, 0, 0, 0, 0, 1181, 1181, 1177, 1173, 0, 0, 0, 0, 0, 1181, 1177, 1177, 1181, 1173, 1173, 1259, 1255, 1255, 1255, 0, 0, 0, 0, 0, 0, 0, 0, 1193, 1185, 1181, 1185, 1219, 1219, 1165, 1219, 1219, 1223, 1223, 1223, 1185, 1185, 1181, 1173, 1255, 1255, 1250, 1245, 1241, 1236, 1236, 1219, 1214, 1214, 1206, 1210, 1206, 1206, 1236, 1232, 1227, 1223, 1214, 1197, 1193, 1193, 1189, 1223, 1223, 1223, 1219, 1214, 1214, 1189, 1189, 1189, 1197, 1181, 1173, 1219, 1219, 1219, 1219, 1214, 1202, 1202, 1202, 1202, 1202, 1206, 1236, 1232, 0, 0, 0, 0,
       1236, 1259, 1259, 1259, 1259, 1250, 1245, 1245, 1241, 1232, 1232, 1232, 1255, 1255, 1259, 1250, 1236, 1241, 1236, 1241, 1241, 1245, 1255, 1255, 1259, 1255, 1250, 1255, 1255, 1250, 1250, 1241, 1236, 1259, 1255, 1259, 1259, 1250, 1255, 1255, 1232, 1232, 1236, 1232, 1236, 1232, 1259, 1259, 1264, 1259, 1157, 1153, 1157, 1157, 1169, 1169, 1223, 1223, 1219, 1097, 1097, 1227, 1227, 1232, 1232, 1232, 1232, 1232, 1227, 1223, 1219, 1214, 1214, 1206, 1223, 1223, 1219, 1214, 1210, 1210, 1210, 1219, 1227, 1223, 1223, 1227, 1227, 1227, 1223, 1219, 1223, 1219, 1214, 1223, 1219, 1214, 1214, 1214, 1219, 1214, 1219, 1219, 1219, 1181, 1181, 0, 0, 1223, 1227, 1227, 0, 0, 0, 0, 0, 0, 0, 0, 0, 0, 0, 0, 0, 0, 0, 0, 0, 0, 0, 0, 0, 0, 0, 0, 0, 0, 0, 0, 0, 0, 0, 0, 0, 0, 0, 0, 0, 0, 0, 0, 0, 0, 0, 0, 0, 0, 0, 0, 0, 0, 0, 0, 0, 0, 0, 0, 0, 0, 0, 0, 0, 0, 0, 0, 0, 0, 0, 0, 0, 0, 0, 0, 0, 0, 0, 0, 0, 0, 0, 0, 0, 0, 0, 0, 0, 0, 0, 0, 0, 0, 0, 0, 1169, 1169, 1169, 0, 0, 0, 0, 0, 1173, 1181, 1181, 1181, 1181, 0, 1181, 1173, 1177, 0, 0, 1169, 1161, 1169, 1181, 1177, 1173, 1173, 1173, 1173, 1181, 1181, 0, 1161, 1181, 1181, 1173, 1177, 1177, 1169, 1169, 1169, 1264, 1264, 1138, 1138, 1202, 1185, 0, 0, 0, 1169, 1173, 1173, 1173, 1181, 1181, 1153, 1165, 1165, 1157, 1157, 1157, 1157, 1169, 1169, 1169, 1165, 1165, 1149, 1241, 1241, 1232, 1214, 1219, 1206, 1210, 1210, 1210, 1210, 1202, 1197, 1189, 1181, 1181, 1181, 1210, 1193, 1189, 1189, 1189, 1185, 1214, 1210, 1185, 1185, 1185, 1181, 1185, 1189, 1193, 1185, 1173, 1173, 1219, 1210, 1214, 1202, 1193, 1193, 1193, 1193, 1169, 1193, 1181, 1173, 0, 0, 0, 0,
       1232, 1232, 1227, 1202, 1202, 1227, 1227, 1232, 1223, 1219, 1219, 1223, 1236, 1236, 1236, 1232, 1232, 1232, 1232, 1232, 1232, 1232, 1236, 1227, 1227, 1185, 1181, 1241, 1241, 1241, 1227, 1227, 1227, 1259, 1259, 1202, 1202, 1214, 1214, 1219, 1223, 1227, 1223, 1223, 1223, 1223, 1227, 1232, 1232, 1153, 1153, 1157, 1157, 1165, 1169, 1169, 1197, 1197, 1197, 1097, 1097, 1097, 1227, 1227, 1227, 1197, 1197, 1202, 1206, 1210, 1210, 1206, 1210, 1206, 1206, 1210, 1210, 1206, 1206, 1206, 1197, 1202, 1197, 1202, 1193, 1193, 1214, 1214, 1214, 1206, 1197, 1197, 1206, 1210, 1210, 1206, 1202, 1202, 1202, 1206, 1197, 1181, 1181, 1181, 1181, 0, 0, 0, 0, 0, 0, 0, 0, 0, 0, 0, 0, 0, 0, 0, 0, 0, 0, 0, 0, 0, 0, 0, 0, 0, 0, 0, 0, 0, 0, 0, 0, 0, 0, 0, 0, 0, 0, 0, 0, 0, 0, 0, 0, 0, 0, 0, 0, 0, 0, 0, 0, 0, 0, 0, 0, 0, 0, 0, 0, 0, 0, 0, 0, 0, 0, 0, 0, 0, 0, 0, 0, 0, 0, 0, 0, 0, 0, 0, 0, 0, 0, 0, 0, 0, 0, 0, 0, 0, 0, 0, 0, 0, 1177, 1169, 1169, 1165, 1161, 1161, 1165, 1165, 1169, 1169, 1169, 1169, 1169, 1173, 1177, 1177, 1177, 1177, 1169, 1165, 1169, 1165, 1161, 1161, 1161, 1161, 1169, 1169, 1165, 1165, 1161, 1157, 1169, 1157, 1157, 1161, 1157, 1165, 1169, 1169, 1161, 1157, 1161, 1157, 1153, 1157, 1141, 1145, 1165, 1165, 1169, 1169, 1165, 1165, 1165, 1165, 1161, 1157, 1157, 1153, 1161, 1161, 1153, 1157, 1153, 1145, 1145, 1138, 1138, 1153, 1149, 1149, 1119, 1119, 1210, 1210, 1214, 1197, 1202, 1193, 1193, 1197, 1193, 1193, 1177, 1169, 1169, 1169, 1165, 1185, 1185, 1181, 1181, 1173, 1173, 1181, 1181, 1173, 1177, 1173, 1177, 1153, 1161, 1173, 1165, 1165, 1165, 1138, 1157, 1157, 1153, 1157, 1157, 1161, 1161, 1165, 1169, 1165, 0, 0, 0, 0,
       1227, 1227, 1223, 1197, 1193, 1181, 1181, 1210, 1206, 1214, 1210, 1210, 1210, 1165, 1165, 1165, 1219, 1219, 1223, 1214, 1185, 1181, 1181, 1181, 1177, 1185, 1181, 1181, 1185, 1185, 1185, 1197, 1193, 1193, 1189, 1189, 1189, 1193, 1189, 1181, 1181, 1202, 1206, 1214, 1214, 1214, 1219, 1219, 1149, 1149, 1149, 1153, 1153, 1161, 1165, 1165, 1189, 1189, 1189, 1181, 1177, 1169, 1169, 1165, 1185, 1185, 1181, 1177, 1177, 1177, 1206, 1206, 1206, 1206, 1206, 1206, 1206, 1197, 1202, 1193, 1189, 1189, 1185, 1185, 1185, 1189, 1197, 1197, 1197, 1197, 1197, 1197, 1202, 1197, 1193, 1193, 1189, 1189, 1189, 1189, 1181, 1181, 1177, 1177, 1177, 1177, 0, 0, 0, 0, 0, 0, 0, 0, 0, 0, 0, 0, 0, 0, 0, 0, 0, 0, 0, 0, 0, 0, 0, 0, 0, 0, 0, 0, 0, 0, 0, 0, 0, 0, 0, 0, 0, 0, 0, 0, 0, 0, 0, 0, 0, 0, 0, 0, 0, 0, 0, 0, 0, 0, 0, 0, 0, 0, 0, 0, 0, 0, 0, 0, 0, 0, 0, 0, 0, 0, 0, 0, 0, 0, 0, 0, 0, 0, 0, 0, 0, 0, 0, 0, 0, 0, 0, 0, 0, 0, 1149, 1145, 1169, 1165, 1161, 1161, 1157, 1157, 1161, 1161, 1165, 1161, 1161, 1157, 1153, 1161, 1181, 1177, 1177, 1177, 1157, 1153, 1157, 1157, 1157, 1157, 1157, 1153, 1153, 1141, 1149, 1149, 1153, 1153, 1153, 1149, 1149, 1153, 1153, 1153, 1157, 1153, 1149, 1149, 1149, 1149, 1145, 1149, 1145, 1149, 1145, 1153, 1153, 1123, 1153, 1145, 1141, 1141, 1141, 1138, 1141, 1141, 1149, 1149, 1149, 1149, 1145, 1141, 1138, 1134, 1134, 1134, 1141, 1123, 1123, 1123, 1123, 1101, 1101, 1080, 1080, 1080, 1057, 0, 0, 0, 1169, 1169, 1169, 1165, 1161, 1161, 1173, 1173, 1123, 1149, 1149, 1149, 1157, 1161, 1161, 1157, 1153, 1153, 1157, 1169, 1161, 1161, 1141, 1138, 1141, 1149, 1149, 1149, 1149, 1145, 1145, 1149, 1161, 1161, 0, 0, 0, 0,
       1197, 1185, 1197, 1189, 1169, 1169, 1165, 1157, 1177, 1185, 1189, 1181, 1181, 1165, 1165, 1165, 1165, 1173, 1177, 1181, 1181, 1173, 1173, 1177, 1169, 1177, 1173, 1169, 1177, 1177, 1177, 1189, 1181, 1181, 1181, 1181, 1181, 1181, 1181, 1177, 1181, 1177, 1181, 1181, 1210, 1210, 1210, 1130, 1130, 1145, 1149, 1153, 1161, 1169, 1173, 1169, 1169, 1090, 1094, 1094, 1173, 1173, 1165, 1165, 1161, 1169, 1173, 1169, 1173, 1090, 1094, 1094, 1090, 1090, 1087, 1087, 1097, 1097, 1097, 1090, 1090, 1090, 1181, 1181, 1181, 1181, 1181, 1073, 0, 1077, 1077, 1094, 1094, 1094, 1189, 1189, 1189, 1185, 1185, 1185, 1185, 1185, 1087, 1070, 0, 0, 0, 0, 0, 0, 0, 0, 0, 0, 0, 0, 0, 0, 0, 0, 0, 0, 0, 0, 0, 0, 0, 0, 0, 0, 0, 0, 0, 0, 0, 0, 0, 0, 0, 0, 0, 0, 0, 0, 0, 0, 0, 0, 1123, 1119, 1119, 1119, 0, 0, 1115, 1112, 1112, 1115, 0, 0, 0, 0, 0, 0, 0, 0, 0, 0, 0, 0, 0, 0, 0, 0, 0, 0, 0, 0, 0, 0, 0, 0, 0, 0, 0, 0, 0, 0, 0, 0, 0, 0, 0, 0, 0, 0, 1090, 1112, 1112, 1138, 1138, 1138, 1145, 1145, 1145, 1141, 1134, 1145, 1141, 1141, 1141, 1138, 1134, 1130, 1126, 1134, 1141, 1141, 1141, 1153, 1153, 1153, 1149, 1134, 1134, 1134, 1138, 1145, 1149, 1149, 1145, 1145, 1145, 1145, 1145, 1145, 1138, 1141, 1141, 1138, 1141, 1138, 1138, 1138, 1138, 1141, 1130, 1123, 1119, 1119, 1119, 1119, 1130, 1134, 1134, 1134, 1130, 1130, 1101, 1138, 1138, 1145, 1134, 1138, 1134, 1134, 1134, 1134, 1101, 1101, 1101, 1105, 1105, 1101, 1101, 1080, 1080, 1080, 1057, 1054, 1054, 1054, 0, 0, 0, 1149, 1149, 1149, 0, 1123, 1123, 1123, 1126, 1123, 1123, 1149, 1141, 1149, 1145, 1138, 1130, 1130, 1097, 1097, 1126, 1126, 1112, 1112, 1141, 1141, 1145, 1138, 1130, 1126, 1138, 1138, 0, 0, 0, 0,
       1181, 1173, 1134, 1134, 1153, 1153, 1153, 1149, 1149, 1149, 1173, 1173, 1157, 1153, 1157, 1157, 1157, 1153, 1161, 1169, 1173, 1169, 1165, 1169, 1165, 1169, 1169, 1165, 1169, 1173, 1169, 1177, 1177, 1177, 1149, 1149, 1173, 1173, 1177, 1173, 1169, 1177, 1181, 1193, 1197, 1197, 1084, 1084, 1080, 1141, 1141, 1145, 1145, 1080, 1084, 1090, 1090, 1090, 1087, 1087, 1087, 1084, 1084, 1157, 1157, 1161, 1165, 1165, 1090, 1090, 1090, 1090, 1090, 1090, 1087, 1087, 1090, 1090, 1090, 1090, 1090, 1090, 1087, 1087, 1087, 1063, 1063, 1073, 1077, 1077, 1077, 1094, 1094, 1094, 1090, 1094, 1097, 1094, 1090, 1094, 1094, 1087, 0, 0, 0, 0, 0, 0, 0, 0, 0, 0, 0, 0, 0, 0, 0, 0, 0, 0, 1101, 1097, 0, 0, 0, 0, 1115, 1105, 1105, 1108, 1112, 1112, 1097, 0, 0, 0, 0, 0, 0, 0, 0, 0, 0, 0, 0, 0, 0, 0, 1115, 1115, 1115, 1115, 1108, 1108, 1112, 1112, 1112, 1112, 0, 0, 0, 0, 0, 0, 0, 0, 0, 0, 0, 0, 0, 0, 0, 0, 0, 0, 0, 0, 0, 0, 0, 0, 0, 0, 0, 0, 0, 0, 0, 1108, 1097, 1097, 1094, 0, 0, 0, 1090, 1112, 1112, 1115, 1119, 1126, 1138, 1138, 1134, 1130, 1123, 1123, 1126, 1130, 1134, 1126, 1123, 1119, 1119, 1123, 1123, 1134, 1130, 1126, 1126, 1126, 1126, 1123, 1123, 1123, 1119, 1123, 1115, 1119, 1126, 1119, 1119, 1112, 1115, 1115, 1126, 1130, 1130, 1130, 1126, 1130, 1126, 1115, 1108, 1108, 1108, 1115, 1115, 1115, 1112, 1112, 1115, 1123, 1123, 1138, 1112, 1101, 1101, 1101, 1101, 1123, 1123, 1108, 1108, 1108, 1090, 1094, 1090, 1094, 1094, 1090, 1084, 1080, 1077, 1073, 1067, 1067, 1057, 1054, 1054, 0, 0, 0, 0, 0, 0, 1112, 1112, 1112, 1112, 1115, 1112, 1112, 1112, 1112, 1108, 1105, 1105, 1115, 1115, 1115, 1097, 1097, 1097, 1115, 1097, 1094, 1090, 1090, 1090, 1123, 1123, 1119, 1115, 1112, 0, 0, 0, 0,
       1119, 1123, 1130, 1126, 1134, 1141, 1145, 1145, 1145, 1145, 1141, 1153, 1149, 1149, 1149, 1145, 1145, 1145, 1138, 1134, 1134, 1161, 1161, 1134, 1134, 1130, 1130, 1130, 1119, 1119, 1123, 1123, 1126, 1126, 1138, 1134, 1141, 1149, 1149, 1165, 1153, 1157, 1157, 1077, 1077, 1077, 1077, 1077, 1077, 1080, 1130, 1070, 1080, 1080, 1084, 1084, 1084, 1084, 1080, 1077, 1080, 1077, 1080, 1080, 1080, 1161, 1161, 1067, 1060, 1097, 1097, 1090, 1090, 1087, 1087, 1084, 1084, 1084, 1077, 1090, 1090, 1090, 1087, 1087, 1087, 1063, 1063, 1073, 1077, 1077, 1077, 1080, 1084, 1080, 1080, 1084, 1084, 1087, 1087, 1087, 1087, 1087, 1073, 1070, 0, 0, 0, 0, 0, 0, 1087, 1087, 1087, 1087, 1080, 1073, 1084, 0, 0, 1087, 1087, 1090, 0, 0, 1090, 1090, 1094, 1094, 1101, 1105, 1112, 1115, 1094, 0, 0, 1090, 1087, 1090, 1090, 0, 0, 0, 1105, 1097, 1087, 1087, 1090, 1090, 1112, 1115, 1105, 1097, 1097, 1097, 1090, 1108, 1105, 1094, 1094, 1087, 1084, 1080, 0, 0, 0, 0, 0, 0, 0, 0, 0, 0, 0, 0, 0, 0, 0, 0, 0, 0, 1084, 1084, 1084, 1094, 0, 0, 0, 0, 0, 1105, 1094, 1094, 1094, 1090, 1094, 1090, 1090, 1094, 1094, 1097, 1108, 1108, 1105, 1108, 1108, 1112, 1115, 1115, 1115, 1108, 1108, 1112, 1115, 1115, 1115, 1097, 1097, 1097, 1097, 1123, 1123, 1077, 1077, 1115, 1115, 1115, 1105, 1097, 1097, 1101, 1108, 1115, 1097, 1105, 1097, 1094, 1094, 1094, 1070, 1073, 1070, 1108, 1108, 1105, 1105, 1097, 1097, 1097, 1080, 1112, 1112, 1112, 1108, 1101, 1084, 1087, 1094, 1090, 1094, 1090, 1087, 1084, 1080, 1105, 1077, 1084, 1087, 1090, 1087, 1084, 1073, 1073, 1073, 1070, 1070, 1067, 1063, 1060, 1054, 1050, 0, 1038, 0, 0, 0, 0, 0, 0, 1105, 1105, 1105, 1105, 1101, 1105, 1097, 1090, 1090, 1094, 1094, 1097, 1101, 1094, 1090, 1090, 1090, 1090, 1090, 1090, 1087, 1090, 1090, 1090, 1087, 1090, 1084, 1097, 0, 0, 0, 0,
       1115, 1115, 1123, 1115, 1126, 1130, 1130, 1130, 1138, 1134, 1130, 1138, 1130, 1119, 1141, 1119, 1119, 1134, 1130, 1130, 1134, 1134, 1134, 1084, 1119, 1119, 1119, 1119, 1115, 1115, 1115, 1105, 1108, 1123, 1130, 1134, 1134, 1134, 1063, 1063, 1063, 1063, 1063, 1067, 1073, 1077, 1077, 1077, 1070, 1070, 1063, 1060, 1063, 1054, 1077, 1077, 1077, 1077, 1077, 1070, 1073, 1067, 1073, 1073, 1077, 1077, 1073, 1067, 1060, 1060, 1063, 1070, 1084, 1080, 1087, 1067, 1067, 1067, 1067, 1067, 1063, 1090, 1084, 1077, 1073, 1070, 1070, 1067, 1070, 1070, 1070, 1073, 1077, 1077, 1077, 1080, 1077, 1077, 1077, 1077, 1073, 1070, 1073, 1070, 1070, 1073, 1073, 1073, 1073, 1077, 1080, 1080, 1084, 1080, 1073, 1077, 1077, 1077, 1077, 1077, 1073, 1077, 1077, 1087, 1087, 1087, 1084, 1080, 1073, 1070, 1070, 1067, 1067, 1084, 1087, 1084, 1080, 1084, 1077, 0, 0, 1063, 1063, 1073, 1073, 1073, 1077, 1077, 1077, 1077, 1077, 1077, 1073, 1067, 1063, 1063, 1060, 1073, 1067, 1067, 1077, 1077, 0, 0, 0, 0, 0, 1060, 0, 1063, 1063, 0, 0, 0, 1080, 1080, 1080, 1077, 1077, 1070, 1073, 1077, 1073, 1073, 0, 1063, 1060, 1070, 1070, 1080, 1080, 1080, 1057, 1057, 1054, 1047, 1094, 1094, 1094, 1101, 1105, 1105, 1094, 1094, 1097, 1097, 1105, 1105, 1097, 1101, 1101, 1057, 1057, 1057, 1094, 1094, 1094, 1094, 1097, 1094, 1094, 1077, 1077, 1077, 1077, 1090, 1090, 1087, 1087, 1080, 1077, 1070, 1070, 1070, 1090, 1087, 1084, 1073, 1070, 1073, 1070, 1077, 1077, 1090, 1090, 1087, 1080, 1077, 1080, 1080, 1105, 1105, 1105, 1080, 1073, 1077, 1073, 1057, 1054, 1080, 1077, 1073, 1070, 1067, 1063, 1067, 1077, 1073, 1070, 1063, 1063, 1063, 1067, 1067, 1067, 1063, 1060, 1054, 1050, 1047, 1038, 0, 0, 0, 0, 0, 0, 0, 0, 1054, 1054, 1067, 1067, 1080, 1084, 1084, 1087, 1087, 1087, 1087, 1070, 1067, 1073, 1087, 1087, 1090, 1087, 1087, 1084, 1080, 1080, 1080, 1070, 1073, 1077, 1077, 0, 0, 0, 0,
       1105, 1101, 1094, 1087, 1090, 1090, 1094, 1101, 1097, 1101, 1101, 1101, 1105, 1105, 1101, 1101, 1094, 1087, 1087, 1084, 1070, 1084, 1084, 1084, 1108, 1108, 1112, 1115, 1108, 1105, 1090, 1094, 1094, 1119, 1119, 1123, 1123, 1123, 1063, 1063, 1060, 1054, 1050, 1050, 1054, 1067, 1070, 1067, 1063, 1057, 1054, 1054, 1050, 1050, 1050, 1050, 1050, 1070, 1067, 1063, 1063, 1057, 1054, 1047, 1047, 1047, 1054, 1054, 1054, 1054, 1057, 1060, 1060, 1063, 1054, 1054, 1054, 1057, 1057, 1054, 1057, 1054, 1054, 1060, 1057, 1060, 1063, 1060, 1060, 1054, 1054, 1050, 1070, 1070, 1073, 1070, 1070, 1067, 1063, 1060, 1063, 1060, 1067, 1067, 1063, 1063, 1067, 1067, 1077, 1077, 1077, 1073, 1073, 1070, 1067, 1070, 1070, 1073, 1073, 1070, 1063, 1063, 1063, 1063, 1041, 1073, 1073, 1070, 1067, 1067, 1063, 1063, 1060, 1063, 1063, 1077, 1077, 1077, 1054, 1054, 1060, 1060, 1054, 1054, 1060, 1060, 1063, 1063, 1070, 1070, 1067, 1063, 1063, 1063, 1060, 1067, 1060, 1063, 1060, 1054, 1073, 1073, 0, 0, 1063, 1060, 1057, 1060, 1057, 1057, 1057, 1054, 0, 0, 1073, 1073, 1073, 1073, 1060, 1060, 1063, 1063, 1057, 1054, 1060, 1057, 1054, 1063, 1054, 1050, 1054, 1057, 1057, 1057, 1054, 1047, 1041, 1038, 1038, 1038, 1038, 1034, 1034, 1047, 1047, 1047, 1057, 1101, 1101, 1101, 1101, 1050, 1050, 1031, 1094, 1094, 1094, 1094, 1094, 1090, 1090, 1073, 1070, 1067, 0, 0, 0, 0, 0, 1070, 1067, 1063, 1063, 1063, 1063, 1077, 1073, 1070, 1067, 1067, 1067, 1063, 1060, 1057, 1050, 1067, 1057, 1057, 1057, 1057, 1054, 1050, 1050, 1050, 1050, 1047, 1054, 1054, 1054, 1044, 1041, 1047, 1050, 1060, 1057, 1057, 1054, 1054, 1050, 1050, 1047, 1050, 1050, 1041, 1041, 1025, 1022, 1044, 1044, 1041, 1025, 1019, 1016, 1010, 0, 0, 0, 0, 0, 1054, 1054, 1057, 1060, 1047, 1077, 1077, 1077, 1077, 1063, 1063, 1063, 1067, 1067, 1070, 1084, 1090, 1070, 1054, 1041, 1044, 1044, 1073, 1070, 1073, 1073, 1054, 0, 0, 0, 0,
       1090, 1094, 1087, 1080, 1077, 1077, 1077, 1087, 1087, 1087, 1084, 1077, 1057, 1057, 1087, 1087, 1087, 1084, 1084, 1084, 1070, 1067, 1080, 1080, 1080, 1094, 1094, 1094, 1097, 1094, 1090, 1090, 1090, 1004, 1038, 1038, 1041, 1038, 1034, 1034, 1041, 1044, 1047, 1047, 1047, 1050, 1054, 1054, 1054, 1050, 1050, 1047, 1044, 1044, 1044, 1044, 1047, 1047, 1041, 1044, 1041, 1041, 1041, 1041, 1041, 1044, 1047, 1047, 1050, 1050, 1054, 1050, 1044, 1047, 1044, 1047, 1047, 1047, 1047, 1047, 1050, 1047, 1047, 1050, 1047, 1050, 1050, 1050, 1050, 1047, 1047, 1044, 1041, 1044, 1041, 1054, 1050, 1050, 1054, 1050, 1047, 1044, 1044, 1050, 1057, 1054, 1057, 1050, 1047, 1044, 1044, 1044, 1050, 1060, 1060, 1054, 1050, 1047, 1047, 1034, 1060, 1057, 1054, 1054, 1041, 1038, 1038, 1057, 1060, 1060, 1057, 1054, 1050, 1047, 1044, 1047, 1047, 1047, 1057, 1057, 1057, 1057, 1054, 1050, 1050, 1050, 1050, 1050, 1044, 1041, 1047, 1047, 1050, 1050, 1038, 1028, 1028, 1047, 1054, 1050, 1050, 1028, 1028, 1063, 1063, 1063, 1041, 1047, 1047, 1050, 1050, 1050, 1047, 1041, 1034, 1031, 1031, 1050, 1057, 1054, 1041, 1054, 1050, 1050, 1050, 1041, 1041, 1041, 1034, 1038, 1047, 1050, 1050, 1050, 1050, 1047, 1038, 1031, 1031, 1031, 1028, 1034, 1034, 1057, 1050, 1057, 1057, 1016, 1016, 1031, 1031, 1034, 1031, 1031, 0, 1031, 1004, 1004, 1004, 1004, 1077, 1077, 1073, 1073, 0, 0, 0, 0, 0, 0, 1060, 1060, 1060, 1022, 1022, 1073, 1073, 1067, 1067, 1063, 1063, 1060, 1054, 1054, 1047, 1050, 1047, 1044, 1044, 1041, 1041, 1041, 1044, 1047, 1047, 1047, 1050, 1041, 1050, 1044, 1038, 1044, 1041, 1041, 1044, 1041, 1038, 1044, 1041, 1034, 1031, 1031, 1028, 1028, 1022, 1025, 1022, 1022, 1025, 1019, 1016, 1013, 1010, 1007, 1001, 995, 978, 978, 0, 1044, 1050, 1050, 1041, 1041, 1022, 1028, 1034, 1038, 1041, 1047, 1044, 1054, 1028, 1025, 1028, 1028, 1044, 1044, 1041, 1041, 1044, 1044, 1013, 1019, 0, 0, 0, 0, 0, 0,
       0, 1077, 1073, 1073, 1070, 1067, 1063, 1060, 1054, 1047, 1050, 1054, 1054, 1057, 1057, 1070, 1084, 1077, 1070, 1067, 1067, 1063, 1063, 1063, 0, 1084, 1084, 1080, 1084, 1087, 1087, 1087, 1001, 1004, 1010, 1038, 1038, 1031, 1031, 1025, 1025, 1031, 1038, 1041, 1041, 1044, 1034, 1034, 1044, 1041, 1044, 1041, 1038, 1034, 1031, 1038, 1034, 1038, 1038, 1031, 1031, 1031, 1031, 1038, 1034, 1031, 1038, 1038, 1038, 1044, 1050, 1041, 1031, 1028, 1031, 1031, 1038, 1038, 1038, 1038, 1044, 1038, 1038, 1038, 1034, 1041, 1038, 1038, 1044, 1041, 1044, 1041, 1034, 1034, 1031, 1028, 1034, 1031, 1038, 1041, 1038, 1038, 1038, 1038, 1038, 1041, 1038, 1038, 1034, 1034, 1031, 1031, 1034, 1034, 1031, 1031, 1047, 1044, 1025, 1025, 1025, 1034, 1034, 1038, 1034, 1034, 1034, 1034, 1044, 1047, 1044, 1044, 1038, 1044, 1038, 1041, 1041, 0, 1010, 1057, 1057, 1050, 1047, 1044, 1031, 1044, 1044, 1044, 1041, 1038, 1031, 1028, 1025, 1025, 1025, 1022, 1022, 1028, 1047, 1044, 1031, 1028, 1028, 1025, 1016, 1022, 1019, 1019, 1025, 1013, 1025, 1022, 1022, 1025, 1022, 1019, 1019, 1034, 1034, 1031, 1031, 1028, 1031, 1041, 1034, 1016, 1019, 1025, 1028, 1028, 1028, 1050, 1047, 1047, 1047, 1019, 1031, 1022, 1022, 1028, 1025, 1028, 1028, 1050, 1050, 1050, 1025, 1016, 1016, 1016, 1028, 1028, 1028, 1028, 0, 0, 0, 1004, 1004, 1004, 1004, 1004, 1004, 0, 992, 992, 0, 0, 0, 0, 0, 1038, 1038, 1022, 1022, 1022, 992, 989, 989, 1050, 1050, 1050, 1050, 1050, 1044, 1044, 1038, 1038, 1034, 1022, 1016, 1016, 1016, 1028, 1028, 1028, 1001, 1001, 1007, 1007, 1022, 1028, 1034, 1031, 1038, 1038, 1022, 1016, 1016, 1019, 1025, 1028, 1025, 1025, 1004, 1001, 1016, 1013, 1016, 1013, 1010, 1004, 1004, 1004, 998, 989, 984, 973, 970, 962, 956, 956, 1019, 1025, 1019, 1022, 1034, 1031, 1034, 1034, 1022, 1025, 1025, 1025, 1025, 1016, 1010, 1004, 1038, 1038, 1038, 1038, 1013, 1019, 1016, 0, 0, 0, 0, 0,
       0, 0, 0, 1063, 1063, 1057, 1054, 1047, 1044, 1044, 1044, 1044, 1044, 1047, 1047, 1019, 1073, 1073, 1073, 1019, 1016, 1016, 951, 0, 970, 970, 978, 978, 1084, 1087, 989, 995, 1001, 1001, 1004, 1004, 1007, 1010, 1025, 1022, 1022, 1025, 1022, 1019, 1016, 1007, 1022, 1025, 1025, 1031, 1025, 1025, 1031, 1019, 1022, 1022, 1016, 1016, 1016, 1019, 1019, 1016, 1016, 1013, 1016, 1016, 1022, 1025, 1013, 1010, 1010, 1004, 1022, 1019, 1019, 1019, 1016, 1025, 1028, 1031, 1013, 1010, 1013, 1013, 1016, 1025, 1025, 1038, 1038, 1031, 1034, 1028, 1022, 1022, 1016, 1016, 1016, 1016, 1013, 1007, 1031, 1031, 1031, 1025, 1019, 1013, 1038, 1038, 1031, 1031, 1028, 1025, 1025, 1022, 1022, 1025, 1022, 1019, 1019, 1016, 1016, 1016, 1016, 1019, 1025, 1025, 1022, 1022, 1022, 1022, 1022, 1025, 1022, 1022, 1016, 1016, 1016, 1001, 1010, 1010, 1013, 1010, 1013, 1019, 1019, 1019, 1016, 1016, 1019, 1031, 1025, 1022, 1022, 1019, 1019, 1019, 1013, 1010, 1007, 1004, 1004, 1025, 1025, 1022, 1016, 1016, 1016, 1013, 1007, 1007, 1007, 1007, 1013, 1013, 1007, 1010, 1010, 1013, 1016, 1019, 1022, 1022, 1019, 1016, 1019, 1016, 1019, 1019, 1019, 1022, 1022, 1016, 1013, 1013, 1016, 1016, 1019, 1016, 1013, 1013, 1007, 1007, 995, 989, 989, 992, 1004, 1007, 1010, 1013, 1013, 1025, 1025, 0, 0, 0, 984, 1004, 1004, 1001, 1004, 1001, 1001, 1001, 992, 992, 0, 0, 0, 0, 0, 0, 0, 0, 998, 992, 992, 0, 989, 956, 956, 956, 956, 959, 967, 1007, 1007, 1010, 1010, 1010, 1013, 1013, 1013, 1004, 1004, 0, 0, 1001, 1001, 1001, 1004, 1001, 1004, 1007, 1001, 992, 995, 995, 1001, 1001, 1001, 1001, 1001, 1001, 998, 992, 992, 992, 995, 995, 992, 989, 984, 987, 981, 981, 970, 967, 964, 959, 954, 954, 1013, 1013, 1013, 1010, 992, 989, 989, 1016, 1013, 1019, 1022, 1022, 1019, 1004, 998, 995, 1004, 1004, 1001, 1001, 1001, 1001, 1007, 995, 0, 0, 0, 0,
       0, 0, 0, 998, 992, 1038, 1038, 1044, 1038, 1034, 1038, 1028, 1025, 1022, 1022, 1019, 1019, 1019, 1019, 1019, 1016, 1016, 951, 951, 970, 970, 973, 975, 978, 984, 984, 987, 998, 998, 1001, 998, 995, 998, 992, 998, 1001, 1001, 1004, 1007, 1001, 998, 1007, 1016, 1007, 1022, 1004, 998, 998, 1001, 1004, 1007, 1007, 1007, 1007, 1007, 1013, 1010, 1010, 1007, 1001, 1001, 1001, 1001, 1004, 998, 998, 998, 1001, 1010, 1007, 1010, 1010, 1007, 1001, 1004, 1001, 1001, 1004, 1007, 1010, 1010, 1010, 1007, 1001, 1007, 1010, 1013, 1016, 1016, 1010, 1010, 1010, 1010, 1007, 1004, 998, 989, 992, 998, 1010, 1007, 1004, 1010, 1010, 1025, 1022, 1022, 1022, 1022, 1022, 1022, 1019, 1016, 1016, 1013, 1013, 1013, 1013, 1016, 1019, 1019, 1019, 1019, 1019, 1019, 1022, 1019, 1016, 1004, 1004, 1004, 1001, 0, 0, 1010, 1010, 1010, 1010, 1013, 1013, 1010, 1010, 1010, 1010, 989, 989, 989, 987, 1010, 1010, 1010, 1001, 998, 998, 998, 998, 995, 995, 989, 1007, 1013, 1013, 1010, 1004, 1001, 998, 998, 1001, 1004, 1004, 1004, 1001, 998, 998, 1010, 1007, 1007, 1004, 998, 1013, 1013, 1016, 1016, 1016, 1019, 1010, 1010, 1010, 1004, 1004, 995, 995, 1004, 1004, 1004, 1004, 995, 992, 987, 984, 987, 987, 995, 995, 992, 992, 973, 973, 0, 0, 0, 984, 981, 984, 992, 1001, 1001, 998, 995, 995, 0, 0, 0, 0, 0, 0, 0, 0, 998, 998, 992, 992, 989, 989, 956, 956, 956, 956, 959, 967, 1007, 1007, 1004, 1007, 1007, 1004, 1004, 1004, 998, 0, 0, 981, 995, 995, 998, 998, 998, 992, 981, 989, 989, 989, 992, 992, 989, 989, 987, 984, 989, 987, 989, 987, 987, 987, 987, 987, 975, 970, 967, 964, 967, 962, 962, 959, 959, 954, 948, 1004, 1004, 1001, 992, 984, 984, 984, 981, 1004, 1016, 1019, 1019, 992, 992, 995, 992, 992, 992, 998, 998, 981, 989, 989, 989, 0, 0, 0, 0,
       0, 0, 1001, 998, 992, 992, 1025, 1025, 1016, 1013, 1013, 1013, 1016, 1013, 1013, 1013, 1007, 1013, 1007, 1013, 1013, 1013, 951, 951, 956, 964, 967, 973, 973, 978, 978, 975, 978, 981, 989, 989, 989, 992, 989, 989, 992, 989, 992, 992, 989, 989, 984, 987, 989, 987, 989, 992, 981, 998, 998, 998, 1001, 998, 995, 989, 981, 981, 981, 989, 992, 992, 992, 989, 989, 989, 989, 989, 992, 998, 1001, 1001, 998, 995, 998, 998, 998, 1001, 1001, 1007, 1007, 1010, 1010, 1007, 1004, 1001, 998, 1001, 1001, 1007, 1007, 1007, 1007, 1007, 1001, 1001, 998, 995, 970, 967, 967, 967, 1001, 998, 998, 967, 964, 964, 964, 978, 981, 981, 978, 978, 970, 967, 967, 1007, 1007, 1010, 1013, 1013, 1013, 973, 978, 981, 981, 984, 1007, 998, 1001, 998, 995, 0, 0, 0, 0, 0, 0, 987, 989, 998, 998, 989, 989, 987, 987, 987, 987, 970, 970, 995, 995, 989, 989, 987, 987, 987, 987, 970, 1010, 1010, 984, 984, 998, 992, 992, 992, 992, 998, 998, 998, 992, 989, 989, 984, 989, 981, 981, 984, 978, 978, 973, 970, 970, 978, 1001, 978, 978, 978, 962, 981, 981, 978, 981, 981, 987, 987, 984, 981, 978, 973, 973, 973, 973, 978, 975, 973, 973, 970, 970, 981, 981, 978, 978, 970, 964, 964, 989, 989, 973, 0, 0, 0, 0, 0, 970, 970, 970, 973, 975, 992, 989, 989, 956, 956, 959, 956, 956, 959, 967, 964, 964, 954, 954, 956, 962, 964, 973, 973, 962, 0, 981, 981, 984, 989, 989, 998, 998, 981, 987, 984, 981, 984, 978, 981, 981, 981, 978, 970, 967, 970, 967, 975, 978, 970, 967, 962, 964, 959, 959, 956, 954, 956, 954, 954, 948, 940, 938, 995, 989, 987, 981, 981, 978, 978, 975, 973, 970, 970, 959, 959, 981, 981, 978, 970, 967, 964, 970, 970, 973, 975, 0, 0, 0, 0,
       0, 987, 989, 992, 989, 989, 989, 998, 998, 1004, 1007, 1004, 1007, 1007, 1001, 1007, 1001, 1004, 1007, 1010, 1010, 1010, 948, 948, 954, 959, 962, 964, 967, 970, 973, 970, 970, 970, 975, 978, 981, 984, 984, 984, 987, 984, 981, 984, 981, 978, 973, 970, 975, 978, 981, 981, 978, 989, 995, 992, 992, 989, 987, 989, 981, 978, 978, 975, 984, 989, 987, 987, 987, 984, 984, 978, 978, 973, 984, 978, 978, 978, 978, 995, 995, 995, 962, 956, 956, 1001, 1001, 1001, 943, 948, 954, 954, 954, 951, 954, 954, 954, 954, 959, 959, 959, 987, 967, 967, 967, 964, 964, 964, 959, 967, 964, 964, 964, 978, 978, 975, 975, 973, 964, 964, 964, 973, 975, 975, 962, 962, 962, 964, 973, 975, 975, 978, 975, 975, 1001, 998, 998, 0, 0, 0, 0, 0, 978, 978, 975, 975, 984, 987, 987, 987, 984, 975, 970, 970, 970, 970, 967, 981, 981, 981, 984, 984, 967, 970, 970, 973, 975, 978, 978, 981, 978, 973, 970, 970, 973, 973, 978, 978, 984, 981, 973, 970, 973, 978, 978, 975, 967, 964, 964, 964, 975, 975, 978, 959, 962, 964, 967, 967, 967, 964, 962, 970, 964, 967, 967, 967, 967, 964, 967, 967, 970, 970, 970, 970, 970, 978, 978, 975, 973, 962, 959, 959, 962, 964, 959, 959, 956, 956, 956, 959, 959, 964, 962, 962, 959, 959, 951, 951, 954, 951, 954, 954, 954, 956, 970, 970, 970, 956, 954, 959, 964, 964, 967, 962, 0, 0, 0, 0, 959, 0, 959, 959, 959, 956, 951, 951, 948, 956, 959, 981, 981, 975, 975, 967, 948, 956, 956, 959, 959, 956, 954, 954, 954, 954, 951, 946, 946, 948, 946, 943, 938, 935, 933, 918, 915, 981, 978, 978, 975, 975, 975, 975, 940, 959, 959, 959, 978, 978, 975, 967, 959, 959, 962, 962, 962, 962, 0, 0, 0, 0,
       975, 978, 978, 989, 987, 967, 987, 975, 987, 992, 1001, 998, 998, 995, 989, 989, 992, 998, 1001, 1004, 1007, 1007, 943, 946, 951, 956, 956, 959, 959, 962, 962, 964, 964, 964, 964, 959, 956, 956, 956, 959, 956, 970, 970, 975, 973, 967, 964, 962, 956, 956, 975, 975, 975, 956, 954, 954, 946, 946, 948, 948, 975, 975, 975, 973, 973, 946, 946, 948, 959, 964, 964, 967, 967, 967, 970, 973, 975, 975, 973, 970, 964, 964, 962, 956, 956, 956, 938, 943, 943, 948, 948, 951, 956, 951, 954, 954, 954, 954, 954, 956, 948, 954, 962, 962, 962, 959, 959, 959, 959, 967, 964, 964, 967, 967, 973, 973, 964, 946, 951, 948, 948, 956, 954, 954, 956, 954, 951, 956, 956, 973, 973, 975, 973, 973, 0, 954, 0, 0, 0, 0, 0, 0, 938, 975, 975, 973, 973, 987, 987, 943, 946, 962, 962, 962, 967, 967, 978, 978, 978, 933, 930, 954, 954, 964, 964, 967, 967, 938, 938, 938, 940, 964, 967, 967, 970, 970, 970, 970, 920, 954, 954, 964, 964, 967, 970, 970, 964, 962, 964, 964, 940, 970, 946, 951, 956, 954, 964, 964, 964, 962, 956, 962, 956, 956, 959, 956, 959, 959, 959, 967, 967, 970, 970, 925, 948, 956, 956, 956, 956, 954, 954, 954, 956, 956, 954, 954, 954, 954, 954, 956, 956, 956, 956, 959, 954, 951, 948, 948, 948, 951, 948, 951, 948, 948, 954, 951, 943, 948, 948, 959, 967, 970, 967, 959, 0, 0, 0, 0, 0, 0, 956, 956, 956, 954, 954, 951, 946, 948, 948, 940, 935, 940, 938, 940, 943, 940, 940, 940, 938, 938, 940, 938, 938, 938, 935, 938, 940, 938, 938, 930, 918, 918, 918, 918, 915, 978, 975, 973, 970, 894, 889, 887, 940, 948, 954, 946, 946, 946, 938, 938, 946, 943, 938, 946, 943, 948, 0, 0, 0, 0,
       975, 978, 978, 956, 962, 962, 962, 954, 948, 946, 946, 998, 995, 981, 984, 981, 981, 920, 923, 925, 928, 1010, 928, 928, 943, 948, 948, 951, 951, 946, 946, 946, 962, 959, 959, 956, 954, 954, 951, 948, 948, 943, 940, 940, 938, 938, 962, 956, 954, 948, 948, 948, 954, 954, 946, 946, 940, 938, 943, 943, 943, 943, 940, 940, 940, 943, 940, 943, 948, 951, 954, 948, 951, 951, 946, 946, 943, 943, 946, 946, 935, 935, 935, 935, 951, 951, 938, 928, 940, 928, 943, 946, 948, 948, 951, 946, 946, 948, 948, 946, 943, 943, 935, 956, 956, 956, 956, 956, 933, 928, 928, 928, 923, 923, 948, 948, 946, 943, 943, 943, 943, 946, 946, 940, 940, 940, 935, 935, 935, 933, 933, 954, 951, 951, 946, 954, 954, 0, 0, 0, 0, 0, 938, 938, 940, 938, 940, 943, 940, 943, 946, 946, 954, 954, 954, 938, 935, 935, 933, 933, 930, 935, 940, 935, 948, 940, 935, 935, 935, 935, 933, 928, 928, 920, 920, 918, 918, 920, 920, 938, 938, 938, 920, 933, 933, 928, 928, 920, 928, 928, 930, 930, 943, 943, 943, 946, 956, 956, 956, 956, 956, 956, 954, 951, 951, 940, 940, 938, 938, 935, 933, 928, 925, 925, 948, 948, 948, 946, 948, 946, 946, 943, 943, 946, 943, 946, 946, 946, 948, 948, 948, 948, 948, 946, 943, 940, 943, 943, 943, 943, 940, 935, 943, 940, 940, 935, 935, 938, 933, 935, 935, 928, 928, 913, 0, 0, 0, 920, 0, 918, 918, 910, 954, 954, 954, 956, 951, 943, 940, 938, 935, 938, 935, 935, 935, 935, 933, 930, 930, 928, 933, 933, 933, 933, 930, 933, 935, 925, 918, 918, 913, 913, 913, 913, 913, 898, 898, 896, 891, 887, 887, 938, 935, 935, 930, 928, 938, 925, 935, 935, 938, 933, 935, 940, 933, 935, 0, 0, 0, 0,
       0, 0, 0, 956, 956, 956, 948, 946, 943, 943, 940, 998, 998, 896, 896, 898, 898, 903, 906, 923, 923, 920, 920, 920, 920, 920, 943, 943, 943, 935, 928, 930, 925, 923, 962, 956, 948, 946, 943, 940, 940, 940, 938, 938, 935, 933, 925, 935, 943, 946, 946, 908, 946, 946, 938, 938, 935, 935, 938, 935, 940, 940, 933, 935, 933, 935, 935, 933, 940, 940, 940, 940, 933, 928, 928, 943, 943, 943, 940, 943, 933, 935, 935, 898, 898, 915, 915, 943, 940, 925, 938, 930, 925, 943, 943, 925, 923, 925, 930, 935, 940, 940, 930, 925, 925, 915, 913, 928, 928, 923, 925, 923, 923, 923, 923, 903, 903, 940, 933, 928, 930, 928, 928, 913, 908, 908, 0, 935, 935, 933, 933, 954, 954, 951, 935, 935, 0, 0, 0, 0, 0, 0, 0, 933, 933, 930, 930, 925, 940, 940, 938, 940, 943, 943, 938, 938, 935, 935, 930, 928, 925, 928, 928, 930, 930, 930, 933, 930, 933, 928, 923, 920, 923, 920, 920, 920, 918, 918, 920, 920, 925, 925, 920, 920, 925, 925, 920, 920, 923, 920, 923, 923, 920, 933, 928, 928, 925, 925, 928, 930, 933, 925, 925, 925, 938, 938, 938, 935, 933, 923, 925, 923, 920, 918, 918, 918, 915, 910, 908, 908, 908, 928, 930, 933, 933, 913, 908, 920, 923, 923, 923, 925, 938, 943, 943, 938, 933, 935, 928, 928, 928, 928, 933, 933, 933, 925, 925, 923, 923, 923, 928, 925, 925, 913, 913, 913, 920, 920, 0, 918, 918, 910, 910, 908, 908, 908, 915, 915, 935, 935, 933, 933, 923, 918, 918, 925, 928, 925, 923, 923, 920, 925, 928, 928, 925, 920, 920, 908, 908, 910, 908, 910, 908, 910, 898, 896, 891, 889, 889, 885, 882, 935, 933, 930, 928, 923, 920, 915, 915, 918, 915, 920, 918, 910, 913, 918, 0, 0, 0, 0,
       0, 0, 0, 920, 918, 946, 946, 943, 940, 940, 1007, 1004, 887, 891, 896, 896, 896, 901, 903, 906, 906, 915, 915, 915, 913, 913, 913, 925, 925, 930, 925, 925, 920, 918, 915, 915, 925, 925, 935, 933, 933, 933, 933, 933, 915, 915, 915, 913, 913, 903, 908, 908, 913, 913, 933, 933, 933, 930, 930, 906, 913, 913, 913, 913, 913, 898, 918, 918, 920, 933, 933, 928, 923, 923, 918, 918, 906, 915, 915, 908, 915, 908, 908, 898, 898, 910, 908, 906, 903, 906, 906, 908, 906, 908, 908, 910, 913, 918, 918, 913, 910, 925, 928, 920, 920, 915, 913, 913, 920, 915, 918, 918, 918, 918, 913, 906, 901, 903, 925, 923, 925, 923, 915, 913, 908, 908, 901, 901, 928, 928, 928, 925, 915, 913, 915, 915, 923, 923, 933, 933, 908, 908, 913, 915, 930, 925, 923, 908, 908, 908, 908, 908, 913, 908, 908, 903, 903, 923, 923, 918, 920, 918, 913, 920, 918, 920, 928, 923, 918, 920, 918, 918, 920, 920, 918, 918, 915, 915, 918, 920, 923, 925, 923, 918, 923, 925, 908, 908, 915, 915, 918, 918, 915, 915, 918, 923, 923, 923, 920, 925, 925, 898, 898, 0, 880, 925, 925, 925, 920, 918, 920, 918, 915, 915, 915, 915, 915, 908, 908, 906, 923, 920, 920, 915, 913, 913, 908, 920, 920, 923, 923, 923, 920, 918, 918, 908, 908, 910, 918, 920, 920, 925, 925, 925, 898, 915, 915, 915, 915, 915, 898, 898, 901, 908, 908, 906, 913, 913, 908, 910, 910, 903, 901, 901, 908, 908, 910, 906, 901, 896, 908, 910, 913, 908, 906, 906, 901, 901, 908, 896, 903, 894, 898, 923, 923, 908, 903, 901, 901, 901, 903, 903, 898, 885, 882, 887, 887, 882, 882, 882, 878, 875, 875, 851, 854, 854, 918, 915, 915, 913, 908, 910, 913, 906, 908, 908, 0, 0, 0, 0,
       0, 0, 920, 920, 920, 938, 940, 940, 860, 860, 1010, 875, 880, 885, 891, 891, 894, 896, 898, 901, 898, 898, 901, 906, 908, 908, 906, 906, 906, 906, 915, 913, 913, 913, 913, 908, 906, 906, 891, 918, 925, 925, 915, 910, 908, 908, 906, 906, 903, 903, 906, 906, 908, 901, 901, 920, 896, 906, 898, 898, 906, 906, 903, 903, 901, 898, 898, 898, 903, 898, 896, 894, 894, 896, 896, 910, 906, 906, 906, 903, 903, 901, 898, 896, 896, 903, 903, 901, 898, 898, 896, 903, 903, 903, 906, 906, 908, 913, 910, 906, 903, 903, 903, 915, 913, 910, 908, 908, 903, 903, 898, 913, 915, 915, 910, 903, 903, 903, 920, 920, 920, 918, 906, 906, 903, 901, 901, 867, 867, 920, 920, 925, 908, 903, 910, 910, 913, 913, 913, 903, 903, 903, 908, 903, 903, 894, 894, 906, 906, 906, 906, 906, 908, 903, 903, 903, 903, 903, 913, 913, 913, 891, 894, 894, 896, 898, 894, 920, 913, 913, 915, 915, 918, 918, 918, 913, 913, 913, 915, 918, 920, 920, 889, 898, 898, 898, 901, 898, 913, 915, 913, 913, 913, 906, 908, 898, 898, 894, 896, 896, 898, 898, 898, 882, 880, 880, 880, 915, 915, 915, 918, 915, 913, 913, 915, 913, 913, 903, 906, 906, 918, 918, 915, 908, 908, 906, 908, 908, 862, 862, 920, 920, 918, 913, 908, 906, 906, 898, 898, 898, 894, 894, 894, 894, 898, 901, 906, 906, 908, 898, 894, 894, 898, 898, 903, 901, 898, 901, 901, 901, 903, 903, 889, 896, 896, 891, 903, 889, 896, 894, 901, 906, 906, 906, 903, 889, 891, 889, 891, 894, 891, 891, 889, 885, 882, 891, 882, 896, 894, 882, 885, 880, 878, 880, 880, 880, 880, 875, 873, 873, 867, 862, 854, 851, 851, 851, 847, 910, 910, 908, 901, 898, 898, 901, 903, 906, 0, 0, 0, 0,
       0, 0, 920, 920, 923, 938, 858, 860, 860, 860, 862, 869, 880, 882, 885, 885, 887, 891, 894, 896, 896, 894, 894, 896, 898, 901, 896, 896, 894, 894, 896, 894, 896, 896, 910, 906, 896, 894, 891, 889, 920, 920, 920, 875, 901, 901, 901, 901, 898, 896, 901, 903, 901, 889, 889, 894, 894, 898, 894, 894, 896, 889, 896, 894, 894, 894, 894, 894, 894, 894, 894, 889, 887, 887, 887, 910, 910, 898, 898, 896, 896, 889, 887, 887, 894, 896, 901, 896, 896, 894, 894, 891, 885, 885, 885, 887, 894, 891, 891, 887, 887, 887, 889, 894, 894, 896, 889, 887, 887, 887, 889, 887, 875, 875, 898, 898, 894, 894, 869, 891, 891, 894, 894, 901, 901, 896, 896, 0, 867, 867, 867, 862, 862, 869, 910, 910, 910, 887, 891, 891, 898, 896, 896, 894, 891, 891, 887, 901, 901, 901, 898, 896, 891, 896, 901, 901, 878, 880, 882, 880, 880, 891, 891, 891, 887, 891, 889, 889, 896, 896, 898, 894, 889, 887, 889, 889, 882, 880, 880, 880, 882, 0, 889, 889, 891, 891, 894, 894, 894, 906, 906, 910, 871, 869, 894, 894, 891, 889, 887, 889, 894, 894, 882, 882, 880, 880, 880, 880, 854, 864, 864, 873, 887, 887, 908, 906, 878, 896, 896, 896, 878, 891, 891, 896, 896, 901, 903, 903, 862, 862, 860, 860, 867, 871, 871, 871, 871, 882, 889, 896, 889, 887, 889, 889, 889, 894, 896, 894, 889, 891, 891, 889, 889, 875, 871, 871, 871, 867, 887, 887, 882, 873, 882, 885, 882, 885, 887, 878, 885, 873, 871, 871, 871, 880, 880, 880, 885, 887, 889, 889, 889, 887, 885, 882, 880, 878, 880, 880, 889, 882, 882, 878, 878, 878, 875, 869, 871, 864, 860, 860, 860, 854, 851, 849, 847, 847, 843, 839, 835, 833, 827, 889, 885, 889, 889, 0, 0, 0, 0, 0,
       0, 0, 0, 920, 923, 933, 856, 858, 858, 860, 862, 862, 862, 878, 878, 878, 875, 878, 878, 891, 891, 891, 889, 889, 889, 887, 891, 887, 885, 887, 887, 887, 887, 880, 878, 878, 882, 887, 889, 885, 878, 875, 875, 875, 875, 878, 878, 891, 887, 885, 882, 880, 885, 885, 887, 889, 891, 896, 891, 887, 885, 885, 887, 887, 887, 891, 891, 887, 887, 889, 889, 885, 885, 880, 878, 871, 871, 867, 871, 882, 882, 880, 878, 875, 875, 873, 873, 894, 889, 887, 887, 878, 878, 875, 878, 873, 885, 885, 873, 878, 875, 878, 878, 882, 878, 878, 882, 880, 882, 882, 878, 878, 871, 869, 873, 873, 864, 864, 869, 869, 871, 882, 889, 889, 858, 860, 867, 867, 864, 864, 862, 862, 862, 869, 878, 878, 887, 887, 887, 887, 887, 885, 885, 889, 887, 889, 885, 880, 878, 878, 878, 878, 887, 885, 882, 880, 878, 878, 878, 873, 873, 878, 875, 878, 878, 878, 851, 854, 854, 889, 889, 889, 887, 887, 887, 882, 882, 880, 880, 880, 882, 0, 885, 887, 889, 887, 885, 882, 882, 882, 860, 867, 867, 864, 864, 891, 889, 889, 889, 871, 871, 864, 875, 878, 880, 878, 880, 880, 854, 864, 864, 873, 871, 875, 875, 873, 875, 878, 878, 878, 878, 878, 887, 887, 887, 860, 869, 869, 864, 871, 871, 871, 867, 867, 867, 827, 827, 880, 882, 882, 885, 885, 887, 889, 878, 878, 873, 875, 871, 869, 867, 869, 864, 875, 871, 871, 871, 867, 869, 862, 873, 869, 875, 875, 867, 869, 869, 869, 869, 869, 867, 862, 864, 864, 875, 875, 871, 885, 887, 887, 887, 880, 878, 880, 878, 875, 875, 858, 854, 854, 854, 862, 862, 862, 860, 856, 856, 856, 854, 854, 854, 849, 847, 845, 843, 843, 839, 831, 827, 827, 825, 825, 813, 0, 0, 0, 0, 0, 0, 0,
       0, 0, 0, 847, 847, 849, 851, 856, 858, 858, 858, 856, 856, 856, 860, 867, 867, 867, 867, 862, 862, 869, 875, 880, 875, 875, 875, 873, 878, 875, 878, 878, 875, 875, 871, 869, 869, 869, 871, 871, 871, 871, 869, 871, 873, 873, 875, 875, 878, 878, 875, 875, 875, 882, 882, 862, 862, 860, 860, 878, 871, 878, 885, 860, 871, 860, 862, 860, 856, 858, 858, 854, 854, 862, 867, 867, 867, 864, 867, 869, 860, 873, 860, 867, 867, 867, 867, 862, 860, 860, 860, 875, 873, 869, 873, 867, 867, 873, 869, 873, 871, 871, 873, 873, 875, 875, 878, 878, 878, 875, 873, 871, 869, 867, 867, 867, 864, 864, 864, 862, 867, 864, 864, 858, 858, 860, 867, 869, 867, 864, 862, 860, 864, 873, 873, 869, 854, 860, 854, 860, 860, 878, 878, 875, 869, 869, 878, 878, 878, 875, 875, 875, 856, 854, 878, 878, 875, 875, 875, 869, 873, 875, 873, 878, 878, 849, 851, 854, 854, 0, 845, 845, 845, 843, 839, 860, 860, 860, 860, 860, 0, 0, 0, 0, 887, 885, 880, 878, 0, 856, 860, 860, 862, 860, 860, 860, 860, 835, 0, 856, 856, 862, 862, 878, 880, 878, 878, 851, 858, 858, 860, 860, 860, 862, 867, 871, 873, 875, 875, 873, 875, 862, 862, 860, 860, 860, 862, 869, 864, 867, 864, 856, 854, 854, 856, 869, 827, 827, 878, 878, 847, 847, 0, 867, 871, 871, 869, 869, 869, 867, 864, 867, 864, 864, 867, 867, 867, 862, 862, 862, 862, 860, 864, 862, 860, 858, 854, 856, 862, 860, 862, 860, 856, 856, 856, 862, 860, 860, 860, 854, 851, 851, 851, 845, 839, 839, 858, 858, 854, 854, 854, 851, 856, 854, 851, 851, 851, 849, 847, 839, 837, 845, 843, 843, 839, 835, 829, 825, 823, 821, 819, 813, 813, 0, 0, 0, 0, 0, 0, 0,
       0, 825, 829, 839, 841, 841, 839, 839, 858, 856, 849, 849, 849, 851, 854, 856, 860, 860, 860, 858, 856, 858, 858, 858, 860, 860, 869, 864, 860, 867, 864, 871, 869, 869, 867, 862, 860, 858, 862, 862, 867, 873, 873, 873, 873, 873, 841, 843, 875, 875, 873, 873, 837, 858, 858, 860, 860, 858, 858, 858, 860, 860, 860, 860, 862, 860, 860, 858, 854, 856, 856, 854, 858, 862, 862, 864, 864, 864, 869, 867, 867, 860, 851, 858, 858, 858, 858, 849, 849, 854, 858, 860, 860, 862, 862, 860, 860, 856, 851, 860, 864, 873, 873, 873, 851, 851, 849, 849, 849, 854, 854, 854, 851, 854, 854, 862, 862, 860, 860, 860, 860, 860, 858, 858, 856, 854, 854, 867, 867, 867, 860, 858, 858, 858, 864, 851, 849, 849, 847, 845, 845, 843, 841, 862, 862, 862, 862, 835, 839, 854, 854, 854, 856, 854, 849, 875, 875, 875, 841, 841, 839, 837, 843, 843, 845, 849, 851, 854, 854, 847, 845, 845, 845, 843, 839, 839, 858, 858, 858, 858, 0, 0, 0, 0, 0, 0, 0, 0, 0, 856, 856, 860, 860, 858, 858, 839, 837, 835, 835, 851, 851, 856, 856, 856, 858, 858, 849, 851, 858, 858, 860, 860, 858, 858, 856, 867, 867, 867, 0, 862, 862, 860, 860, 860, 858, 860, 860, 860, 856, 854, 854, 854, 851, 847, 851, 851, 827, 827, 845, 843, 843, 843, 843, 871, 871, 869, 867, 856, 856, 862, 862, 862, 858, 858, 854, 851, 843, 858, 860, 858, 858, 856, 856, 856, 851, 851, 851, 845, 847, 843, 860, 858, 851, 854, 851, 851, 858, 858, 854, 849, 847, 847, 849, 845, 839, 839, 851, 854, 849, 847, 849, 847, 849, 849, 847, 847, 843, 837, 835, 833, 831, 831, 831, 829, 827, 827, 825, 821, 819, 815, 813, 811, 809, 809, 0, 0, 0, 0, 0, 0,
       0, 825, 827, 829, 835, 833, 833, 831, 831, 839, 843, 843, 845, 849, 851, 851, 854, 849, 849, 849, 849, 851, 851, 849, 841, 839, 843, 858, 856, 851, 849, 845, 843, 843, 843, 847, 854, 854, 856, 858, 851, 849, 847, 845, 843, 843, 841, 843, 843, 835, 837, 837, 837, 837, 849, 854, 858, 851, 851, 0, 0, 823, 0, 823, 807, 815, 815, 815, 835, 835, 835, 835, 827, 827, 827, 831, 831, 831, 833, 833, 867, 851, 849, 849, 849, 829, 0, 835, 841, 841, 845, 849, 854, 854, 851, 851, 851, 851, 847, 849, 837, 837, 829, 847, 847, 845, 847, 849, 849, 849, 851, 851, 849, 849, 849, 858, 858, 854, 854, 856, 841, 841, 851, 851, 851, 851, 847, 843, 845, 845, 843, 843, 843, 845, 849, 847, 845, 845, 843, 843, 843, 843, 841, 841, 841, 837, 837, 835, 839, 839, 835, 841, 841, 847, 845, 841, 841, 841, 841, 841, 839, 837, 835, 837, 837, 845, 849, 851, 847, 847, 845, 843, 843, 843, 839, 839, 839, 839, 0, 0, 0, 0, 0, 0, 0, 0, 0, 0, 0, 0, 805, 841, 841, 841, 841, 839, 837, 835, 835, 843, 843, 843, 849, 854, 854, 851, 851, 821, 823, 819, 854, 854, 854, 854, 851, 851, 829, 0, 0, 0, 856, 858, 0, 0, 0, 0, 854, 0, 851, 851, 849, 851, 849, 845, 843, 843, 839, 843, 837, 837, 837, 837, 0, 813, 0, 0, 0, 854, 854, 843, 843, 841, 843, 845, 843, 841, 841, 839, 833, 860, 858, 0, 858, 0, 0, 849, 849, 849, 831, 833, 831, 831, 841, 837, 843, 839, 835, 851, 835, 835, 843, 843, 845, 839, 837, 829, 827, 827, 843, 843, 843, 845, 845, 849, 849, 833, 833, 829, 829, 829, 825, 823, 819, 819, 817, 821, 819, 815, 813, 811, 809, 805, 803, 796, 790, 789, 0, 0, 0, 0,
       0, 0, 825, 827, 831, 827, 827, 829, 827, 833, 839, 841, 839, 835, 843, 847, 847, 845, 845, 847, 847, 849, 845, 841, 837, 835, 837, 837, 847, 845, 843, 843, 841, 839, 841, 841, 843, 849, 851, 854, 851, 847, 845, 843, 841, 841, 835, 835, 825, 835, 835, 835, 833, 835, 829, 827, 827, 821, 821, 819, 821, 823, 823, 0, 0, 0, 815, 815, 815, 829, 829, 829, 827, 827, 827, 831, 831, 831, 829, 827, 829, 827, 829, 829, 829, 829, 813, 835, 835, 831, 829, 829, 829, 819, 819, 817, 823, 823, 817, 835, 835, 835, 829, 829, 841, 841, 841, 849, 847, 847, 849, 847, 843, 841, 841, 839, 833, 837, 835, 833, 833, 833, 831, 831, 835, 835, 835, 835, 835, 837, 835, 833, 833, 839, 839, 843, 841, 821, 843, 841, 841, 841, 839, 839, 837, 837, 837, 835, 841, 837, 837, 839, 837, 837, 827, 821, 821, 825, 835, 831, 837, 837, 827, 827, 827, 833, 833, 821, 821, 843, 843, 841, 841, 843, 843, 843, 843, 0, 0, 0, 0, 0, 0, 0, 0, 0, 0, 0, 0, 0, 805, 805, 837, 837, 837, 837, 835, 831, 831, 831, 833, 833, 829, 829, 817, 817, 821, 821, 823, 819, 819, 821, 819, 815, 815, 829, 829, 0, 0, 0, 0, 0, 0, 0, 0, 0, 0, 0, 0, 841, 831, 831, 837, 837, 837, 839, 835, 835, 835, 829, 829, 813, 813, 0, 0, 0, 0, 0, 0, 835, 835, 837, 835, 837, 835, 833, 835, 833, 829, 0, 0, 0, 0, 0, 817, 817, 807, 831, 831, 835, 831, 829, 831, 831, 813, 827, 827, 821, 821, 821, 821, 821, 819, 821, 823, 823, 823, 823, 823, 833, 835, 835, 821, 819, 819, 821, 821, 821, 821, 819, 817, 813, 813, 813, 809, 805, 805, 805, 805, 805, 803, 802, 798, 792, 789, 785, 0, 0, 0, 0,
       0, 0, 821, 821, 823, 823, 823, 825, 821, 825, 829, 827, 831, 825, 823, 827, 827, 839, 835, 839, 839, 841, 839, 833, 833, 831, 827, 823, 819, 819, 819, 841, 841, 837, 837, 833, 827, 827, 817, 817, 815, 811, 843, 841, 839, 833, 825, 823, 825, 825, 821, 831, 823, 823, 823, 821, 819, 821, 821, 819, 821, 823, 823, 805, 807, 807, 815, 815, 815, 815, 807, 823, 823, 823, 817, 811, 811, 829, 827, 825, 823, 821, 821, 821, 825, 811, 813, 817, 817, 823, 823, 823, 823, 819, 0, 817, 823, 823, 817, 817, 815, 815, 817, 817, 813, 813, 819, 817, 819, 819, 805, 839, 839, 837, 835, 837, 833, 817, 825, 825, 825, 829, 827, 827, 835, 835, 835, 835, 835, 803, 829, 829, 829, 823, 823, 813, 813, 817, 815, 813, 813, 813, 837, 837, 833, 835, 833, 831, 833, 833, 833, 809, 833, 829, 827, 827, 819, 815, 833, 829, 831, 831, 827, 825, 825, 827, 825, 821, 821, 809, 811, 811, 811, 811, 811, 809, 809, 0, 0, 0, 0, 0, 0, 0, 0, 0, 0, 0, 0, 807, 805, 805, 805, 805, 805, 813, 813, 813, 829, 829, 831, 831, 821, 815, 813, 815, 815, 817, 817, 817, 819, 821, 819, 815, 815, 821, 825, 0, 0, 0, 0, 0, 0, 0, 0, 0, 0, 0, 0, 0, 0, 803, 800, 837, 837, 837, 821, 819, 819, 813, 813, 813, 813, 815, 0, 0, 0, 0, 0, 0, 0, 0, 829, 827, 829, 827, 819, 817, 821, 819, 819, 0, 0, 817, 817, 817, 807, 807, 807, 805, 805, 825, 825, 825, 813, 819, 815, 815, 815, 815, 815, 807, 815, 815, 805, 805, 819, 819, 819, 796, 811, 811, 819, 817, 817, 815, 815, 813, 815, 815, 813, 811, 809, 807, 805, 802, 800, 800, 798, 796, 798, 792, 789, 787, 787, 783, 0, 0, 0, 0,
       0, 0, 817, 817, 819, 815, 813, 815, 813, 815, 813, 813, 817, 821, 819, 819, 819, 819, 796, 800, 800, 817, 809, 813, 833, 833, 819, 819, 819, 817, 815, 811, 811, 811, 813, 823, 817, 815, 811, 811, 811, 809, 807, 807, 807, 811, 815, 815, 813, 813, 794, 819, 819, 819, 819, 819, 815, 813, 815, 817, 811, 809, 809, 805, 807, 807, 807, 809, 811, 807, 807, 802, 798, 796, 803, 803, 800, 800, 790, 817, 817, 815, 811, 809, 809, 809, 811, 813, 813, 811, 821, 821, 0, 0, 817, 817, 817, 823, 811, 807, 803, 805, 811, 811, 811, 811, 815, 815, 817, 815, 805, 805, 809, 817, 817, 811, 811, 811, 811, 815, 815, 796, 798, 798, 803, 803, 803, 803, 803, 803, 803, 821, 821, 815, 819, 813, 813, 819, 817, 817, 787, 787, 787, 783, 825, 825, 825, 825, 825, 803, 807, 807, 805, 815, 817, 817, 815, 809, 809, 827, 827, 794, 794, 794, 794, 796, 796, 790, 809, 809, 811, 811, 811, 811, 811, 809, 809, 809, 0, 0, 0, 0, 0, 0, 0, 0, 0, 0, 0, 0, 807, 805, 805, 805, 805, 807, 807, 807, 805, 0, 0, 0, 817, 813, 813, 813, 813, 0, 809, 817, 819, 821, 817, 811, 813, 0, 0, 0, 0, 0, 0, 0, 0, 0, 0, 0, 0, 0, 0, 803, 803, 803, 800, 802, 802, 817, 817, 815, 811, 813, 813, 813, 815, 0, 790, 0, 0, 0, 0, 0, 0, 792, 790, 792, 805, 805, 817, 813, 815, 815, 815, 0, 805, 813, 813, 807, 805, 805, 803, 805, 805, 800, 798, 798, 798, 796, 813, 813, 807, 817, 817, 817, 817, 807, 805, 805, 792, 790, 796, 796, 796, 798, 798, 811, 805, 803, 803, 803, 802, 805, 792, 802, 803, 798, 798, 796, 796, 790, 789, 789, 781, 787, 785, 783, 781, 780, 0, 0, 0, 0,
       0, 0, 0, 0, 813, 811, 809, 809, 807, 809, 796, 807, 809, 815, 817, 817, 817, 798, 796, 796, 796, 800, 802, 803, 803, 798, 798, 817, 817, 817, 807, 807, 805, 807, 809, 790, 807, 796, 807, 805, 796, 805, 803, 803, 803, 803, 805, 803, 805, 798, 794, 794, 798, 796, 798, 798, 803, 803, 803, 803, 803, 805, 807, 803, 803, 802, 802, 809, 809, 805, 803, 802, 798, 796, 798, 798, 796, 790, 790, 790, 790, 752, 803, 803, 803, 807, 752, 752, 754, 0, 752, 0, 0, 0, 815, 815, 815, 817, 809, 800, 800, 800, 800, 809, 809, 809, 813, 813, 815, 809, 800, 0, 0, 0, 0, 0, 0, 809, 809, 798, 796, 796, 798, 798, 798, 802, 802, 803, 803, 802, 802, 802, 785, 785, 807, 807, 803, 803, 787, 787, 787, 787, 783, 0, 0, 0, 783, 789, 789, 789, 809, 807, 803, 815, 815, 790, 805, 805, 803, 803, 794, 794, 796, 794, 794, 794, 789, 790, 792, 790, 792, 792, 811, 802, 809, 809, 805, 803, 803, 800, 798, 0, 0, 0, 0, 0, 0, 790, 790, 790, 807, 807, 807, 807, 807, 805, 805, 0, 0, 0, 0, 0, 0, 811, 0, 0, 0, 0, 0, 0, 0, 0, 813, 811, 0, 0, 0, 0, 0, 0, 0, 0, 0, 0, 0, 0, 0, 0, 0, 0, 803, 798, 800, 802, 802, 785, 803, 803, 802, 802, 785, 783, 787, 787, 790, 798, 798, 0, 0, 0, 792, 792, 790, 792, 794, 796, 800, 807, 807, 807, 771, 0, 805, 805, 811, 809, 767, 767, 803, 803, 798, 798, 794, 794, 794, 796, 798, 798, 802, 800, 800, 781, 780, 796, 796, 794, 792, 790, 790, 790, 790, 790, 790, 813, 803, 800, 798, 792, 790, 785, 789, 790, 790, 790, 790, 790, 789, 785, 783, 783, 780, 781, 780, 776, 776, 771, 0, 0, 0, 0,
       0, 0, 0, 0, 790, 790, 790, 790, 796, 796, 796, 796, 800, 800, 778, 780, 798, 798, 796, 796, 796, 796, 796, 794, 794, 792, 794, 792, 790, 790, 802, 802, 802, 802, 789, 789, 790, 794, 794, 798, 794, 792, 796, 789, 802, 802, 803, 802, 792, 794, 789, 787, 792, 790, 794, 792, 790, 800, 798, 783, 783, 789, 789, 800, 800, 796, 796, 802, 802, 802, 802, 800, 800, 798, 796, 796, 794, 783, 783, 789, 789, 754, 754, 796, 754, 755, 754, 754, 754, 752, 0, 0, 0, 0, 0, 0, 783, 783, 783, 794, 789, 796, 796, 774, 780, 807, 807, 802, 798, 803, 803, 803, 0, 0, 0, 0, 0, 798, 798, 798, 798, 798, 798, 796, 796, 773, 773, 802, 802, 800, 798, 789, 785, 785, 789, 794, 796, 790, 787, 785, 785, 783, 783, 774, 769, 769, 783, 783, 783, 783, 783, 794, 798, 789, 790, 790, 790, 776, 776, 776, 781, 789, 794, 792, 792, 792, 792, 790, 790, 790, 790, 790, 792, 796, 792, 790, 792, 792, 798, 796, 794, 792, 789, 789, 787, 789, 789, 790, 789, 787, 783, 781, 781, 781, 0, 0, 0, 0, 0, 0, 0, 0, 0, 0, 0, 0, 0, 0, 0, 0, 0, 0, 0, 0, 0, 0, 0, 0, 746, 747, 0, 0, 0, 0, 0, 0, 0, 0, 0, 0, 798, 798, 798, 798, 789, 785, 787, 790, 790, 789, 785, 783, 781, 781, 785, 798, 796, 796, 796, 0, 790, 790, 792, 792, 794, 794, 796, 798, 798, 0, 0, 0, 0, 762, 767, 767, 769, 767, 774, 774, 774, 773, 789, 789, 789, 794, 794, 796, 796, 803, 780, 781, 780, 780, 789, 789, 790, 790, 789, 789, 787, 783, 785, 780, 778, 789, 789, 789, 783, 781, 783, 783, 785, 787, 781, 778, 780, 778, 780, 778, 776, 776, 774, 771, 769, 767, 0, 0, 0, 0,
       0, 0, 0, 781, 783, 787, 787, 787, 785, 780, 774, 792, 792, 776, 778, 780, 778, 792, 792, 792, 792, 792, 789, 787, 789, 789, 792, 792, 789, 789, 787, 787, 785, 785, 787, 787, 789, 787, 787, 789, 785, 785, 783, 783, 776, 776, 781, 781, 767, 764, 787, 787, 792, 792, 792, 787, 785, 783, 783, 781, 781, 781, 781, 783, 767, 766, 780, 780, 776, 780, 778, 778, 767, 767, 767, 769, 769, 781, 781, 780, 780, 752, 769, 769, 776, 755, 754, 754, 752, 752, 0, 0, 762, 0, 762, 766, 767, 781, 781, 781, 781, 774, 767, 774, 780, 781, 780, 780, 780, 0, 757, 0, 0, 0, 0, 0, 0, 0, 0, 0, 0, 762, 761, 761, 761, 773, 773, 769, 771, 771, 787, 780, 781, 783, 787, 787, 785, 787, 785, 783, 781, 781, 789, 774, 769, 769, 769, 769, 787, 787, 787, 787, 789, 785, 785, 785, 0, 776, 776, 774, 778, 774, 774, 776, 774, 774, 774, 787, 787, 787, 787, 762, 764, 762, 762, 789, 789, 785, 785, 769, 769, 789, 789, 789, 789, 787, 789, 789, 789, 787, 781, 780, 781, 780, 0, 0, 0, 0, 0, 0, 0, 0, 0, 0, 0, 0, 0, 0, 0, 0, 0, 0, 0, 0, 0, 0, 0, 0, 744, 749, 749, 0, 0, 0, 0, 0, 0, 787, 780, 780, 767, 764, 794, 785, 787, 787, 787, 787, 787, 780, 781, 781, 781, 783, 785, 783, 783, 769, 766, 0, 0, 769, 769, 789, 789, 787, 776, 776, 771, 771, 767, 766, 762, 762, 762, 769, 769, 769, 771, 773, 774, 773, 771, 769, 769, 767, 767, 767, 774, 778, 778, 778, 776, 780, 781, 780, 771, 771, 773, 773, 776, 776, 776, 776, 773, 774, 776, 781, 781, 780, 778, 774, 773, 769, 769, 773, 767, 774, 773, 771, 769, 762, 764, 762, 755, 757, 0, 0, 0, 0,
       0, 0, 764, 780, 780, 783, 789, 774, 774, 774, 773, 774, 780, 776, 776, 778, 774, 774, 767, 767, 769, 781, 781, 781, 780, 778, 778, 785, 785, 785, 785, 781, 776, 774, 773, 774, 785, 780, 774, 780, 778, 780, 778, 778, 773, 774, 774, 771, 767, 764, 764, 764, 761, 761, 762, 764, 780, 781, 783, 781, 781, 783, 781, 783, 767, 766, 771, 771, 776, 776, 773, 767, 766, 766, 766, 766, 767, 767, 778, 778, 767, 767, 769, 769, 769, 761, 752, 754, 754, 754, 761, 762, 762, 762, 762, 766, 767, 764, 764, 780, 780, 778, 774, 774, 774, 764, 750, 749, 749, 755, 0, 757, 0, 0, 0, 0, 0, 747, 0, 752, 762, 762, 761, 761, 761, 754, 762, 762, 762, 761, 781, 780, 780, 780, 783, 783, 773, 762, 762, 762, 757, 776, 776, 769, 767, 769, 767, 769, 774, 776, 780, 780, 755, 755, 754, 755, 755, 773, 773, 771, 771, 773, 774, 0, 773, 0, 761, 783, 783, 783, 762, 762, 764, 762, 762, 755, 771, 771, 771, 769, 769, 769, 769, 769, 769, 769, 769, 769, 769, 769, 764, 781, 781, 0, 0, 0, 0, 0, 0, 0, 0, 0, 0, 0, 0, 0, 0, 0, 0, 0, 0, 0, 0, 0, 0, 0, 0, 0, 0, 754, 754, 0, 0, 762, 761, 762, 762, 762, 769, 767, 766, 766, 766, 766, 787, 787, 783, 783, 780, 769, 767, 767, 762, 780, 780, 780, 773, 769, 766, 764, 767, 766, 766, 767, 766, 764, 769, 767, 767, 767, 767, 766, 762, 761, 762, 771, 771, 771, 769, 771, 771, 769, 769, 767, 767, 767, 767, 767, 766, 773, 773, 767, 767, 764, 764, 776, 766, 764, 764, 764, 762, 762, 762, 769, 767, 764, 764, 766, 764, 764, 767, 767, 769, 767, 767, 762, 761, 762, 757, 761, 761, 757, 754, 754, 750, 752, 0, 0, 0, 0,
       0, 762, 761, 761, 761, 769, 769, 771, 771, 771, 766, 764, 766, 769, 773, 774, 771, 771, 771, 769, 769, 767, 767, 767, 766, 766, 764, 757, 755, 755, 755, 761, 762, 766, 762, 762, 764, 766, 769, 771, 771, 771, 769, 769, 769, 771, 767, 766, 762, 762, 764, 764, 761, 761, 761, 761, 757, 755, 755, 757, 755, 755, 759, 759, 762, 761, 761, 754, 755, 755, 755, 764, 762, 764, 764, 764, 764, 761, 759, 762, 764, 766, 766, 764, 764, 754, 754, 754, 754, 754, 761, 0, 759, 759, 759, 761, 761, 744, 754, 754, 750, 749, 749, 764, 764, 764, 750, 749, 749, 755, 757, 0, 0, 0, 0, 0, 0, 747, 749, 752, 759, 759, 754, 757, 754, 754, 754, 755, 757, 754, 757, 757, 757, 755, 755, 774, 773, 762, 762, 762, 757, 755, 754, 764, 764, 766, 764, 764, 764, 761, 759, 755, 755, 755, 754, 755, 755, 755, 771, 771, 771, 759, 759, 0, 761, 0, 0, 761, 759, 761, 757, 757, 759, 755, 755, 755, 755, 767, 767, 767, 762, 769, 769, 767, 767, 764, 764, 766, 764, 766, 764, 762, 0, 0, 0, 0, 0, 0, 0, 0, 0, 0, 0, 0, 0, 0, 0, 0, 0, 0, 0, 0, 0, 0, 0, 0, 0, 0, 0, 752, 752, 757, 764, 764, 761, 761, 761, 762, 762, 767, 764, 764, 764, 761, 761, 757, 757, 769, 769, 767, 764, 762, 762, 757, 757, 757, 762, 764, 764, 762, 764, 766, 762, 764, 767, 766, 767, 766, 762, 762, 762, 761, 759, 759, 755, 754, 767, 766, 766, 762, 767, 767, 767, 767, 766, 764, 764, 762, 762, 762, 767, 767, 767, 762, 755, 755, 762, 757, 761, 761, 757, 759, 759, 762, 762, 762, 761, 761, 761, 759, 759, 746, 742, 761, 761, 754, 752, 754, 754, 757, 757, 749, 749, 746, 747, 747, 0, 0, 0, 0,
       0, 0, 759, 757, 757, 757, 762, 759, 759, 761, 761, 761, 761, 759, 759, 774, 771, 771, 769, 769, 766, 766, 766, 764, 759, 755, 764, 755, 755, 757, 755, 757, 757, 759, 759, 757, 759, 759, 762, 761, 762, 761, 766, 766, 766, 766, 762, 762, 761, 762, 764, 762, 761, 761, 759, 755, 754, 754, 752, 754, 754, 754, 755, 757, 757, 757, 757, 754, 754, 752, 749, 749, 742, 762, 762, 762, 736, 736, 734, 733, 764, 764, 764, 764, 749, 749, 749, 752, 750, 749, 749, 747, 749, 757, 749, 746, 746, 744, 746, 747, 747, 746, 746, 744, 744, 747, 747, 747, 747, 750, 747, 746, 744, 742, 0, 741, 742, 744, 749, 752, 754, 755, 752, 752, 752, 752, 752, 754, 754, 754, 754, 757, 757, 755, 757, 752, 752, 759, 759, 757, 757, 757, 750, 764, 764, 742, 759, 759, 761, 761, 757, 754, 754, 754, 752, 752, 752, 752, 764, 764, 759, 0, 0, 0, 0, 0, 757, 757, 755, 755, 754, 754, 754, 752, 752, 752, 752, 752, 767, 767, 757, 755, 755, 755, 755, 752, 752, 749, 749, 749, 741, 0, 0, 0, 0, 0, 0, 0, 0, 0, 0, 0, 0, 0, 0, 0, 0, 0, 0, 0, 0, 0, 0, 0, 0, 0, 0, 0, 749, 750, 749, 749, 739, 731, 731, 723, 723, 723, 725, 759, 759, 759, 759, 755, 755, 755, 752, 754, 757, 764, 762, 761, 759, 757, 755, 752, 749, 750, 750, 755, 755, 757, 755, 752, 750, 752, 750, 752, 761, 755, 759, 759, 754, 754, 750, 747, 747, 747, 747, 757, 757, 747, 747, 741, 741, 762, 739, 738, 739, 739, 739, 742, 741, 741, 746, 749, 742, 744, 744, 755, 755, 759, 755, 759, 759, 759, 755, 755, 747, 752, 752, 746, 742, 741, 746, 747, 750, 749, 749, 742, 741, 741, 741, 742, 741, 738, 0, 0, 0, 0,
       0, 0, 746, 749, 746, 747, 749, 750, 754, 757, 757, 757, 757, 754, 754, 747, 741, 741, 734, 731, 733, 733, 733, 762, 755, 752, 754, 749, 752, 754, 752, 750, 742, 741, 749, 750, 749, 744, 739, 739, 741, 741, 742, 742, 738, 738, 733, 731, 728, 728, 739, 739, 741, 741, 741, 747, 747, 747, 747, 750, 752, 752, 752, 752, 731, 750, 750, 750, 750, 747, 746, 742, 742, 741, 741, 741, 736, 736, 734, 733, 733, 730, 742, 742, 741, 739, 739, 739, 734, 738, 736, 741, 741, 739, 742, 739, 741, 741, 741, 741, 744, 744, 744, 742, 742, 742, 744, 746, 744, 746, 744, 741, 742, 742, 741, 741, 741, 741, 736, 736, 727, 723, 723, 747, 747, 746, 744, 750, 752, 752, 752, 752, 750, 750, 742, 736, 733, 734, 734, 752, 754, 754, 754, 736, 742, 742, 742, 698, 698, 690, 734, 752, 752, 752, 752, 752, 752, 752, 728, 746, 746, 746, 741, 741, 0, 0, 0, 731, 731, 731, 752, 752, 750, 750, 750, 749, 749, 739, 741, 754, 754, 755, 747, 752, 752, 750, 749, 747, 746, 742, 741, 0, 0, 0, 0, 0, 0, 0, 0, 0, 0, 0, 0, 0, 0, 0, 0, 0, 0, 0, 0, 0, 0, 0, 0, 0, 0, 744, 747, 747, 742, 739, 739, 731, 731, 723, 723, 723, 725, 727, 725, 755, 755, 755, 754, 749, 744, 742, 741, 734, 738, 759, 759, 749, 755, 744, 747, 747, 0, 747, 752, 752, 752, 752, 749, 749, 749, 749, 749, 749, 706, 706, 706, 706, 742, 744, 739, 736, 736, 730, 734, 734, 742, 742, 742, 738, 736, 734, 736, 738, 734, 736, 734, 734, 741, 744, 738, 738, 738, 734, 734, 723, 734, 734, 734, 746, 746, 746, 742, 744, 739, 739, 741, 739, 741, 739, 739, 738, 734, 736, 736, 736, 741, 739, 739, 0, 0, 0, 0, 0,
       0, 741, 744, 744, 742, 744, 744, 744, 749, 752, 722, 722, 730, 731, 722, 717, 722, 722, 734, 731, 734, 733, 733, 734, 746, 746, 719, 720, 720, 731, 731, 738, 739, 739, 738, 738, 739, 739, 734, 733, 731, 731, 739, 739, 734, 734, 730, 730, 728, 728, 727, 741, 739, 736, 734, 734, 733, 733, 722, 723, 725, 725, 727, 731, 728, 728, 728, 733, 733, 733, 730, 730, 728, 728, 734, 733, 733, 734, 734, 733, 730, 730, 728, 734, 734, 734, 733, 731, 728, 734, 736, 742, 741, 739, 738, 736, 738, 739, 738, 738, 736, 738, 728, 728, 739, 739, 736, 736, 738, 736, 736, 736, 734, 741, 741, 741, 739, 736, 733, 728, 727, 723, 723, 741, 741, 739, 736, 730, 728, 728, 722, 720, 720, 728, 728, 730, 728, 730, 733, 733, 730, 727, 727, 736, 736, 736, 734, 697, 690, 690, 734, 733, 733, 733, 728, 727, 749, 749, 728, 728, 728, 741, 741, 0, 0, 0, 725, 0, 731, 731, 725, 723, 722, 741, 741, 739, 739, 739, 741, 741, 742, 744, 746, 746, 725, 719, 719, 719, 719, 741, 739, 739, 739, 0, 0, 0, 0, 0, 0, 0, 0, 0, 0, 0, 0, 0, 0, 0, 0, 0, 0, 0, 0, 0, 0, 0, 0, 0, 746, 746, 742, 736, 731, 731, 731, 723, 723, 723, 725, 727, 725, 725, 722, 722, 747, 747, 746, 725, 730, 730, 731, 739, 742, 747, 749, 744, 746, 0, 0, 728, 720, 720, 730, 730, 730, 747, 747, 746, 746, 0, 0, 706, 706, 746, 741, 741, 736, 733, 730, 730, 730, 731, 736, 741, 741, 734, 733, 731, 731, 730, 730, 730, 733, 738, 738, 736, 733, 731, 731, 731, 730, 723, 731, 733, 731, 731, 733, 730, 736, 734, 734, 731, 730, 734, 734, 736, 736, 733, 731, 731, 733, 733, 730, 727, 723, 722, 0, 0, 0, 0,
       0, 0, 0, 0, 714, 716, 716, 725, 723, 723, 723, 731, 730, 731, 722, 717, 717, 719, 720, 727, 731, 733, 731, 734, 719, 720, 719, 720, 720, 719, 725, 731, 733, 730, 730, 728, 731, 733, 731, 728, 725, 722, 722, 722, 722, 723, 725, 727, 725, 725, 723, 723, 723, 733, 733, 727, 727, 722, 722, 723, 723, 722, 722, 722, 720, 720, 716, 0, 728, 728, 728, 728, 722, 725, 723, 725, 725, 733, 733, 719, 719, 720, 722, 719, 717, 717, 723, 725, 723, 720, 725, 725, 730, 728, 730, 728, 730, 730, 731, 733, 733, 730, 728, 723, 723, 723, 717, 733, 733, 733, 731, 731, 731, 731, 739, 739, 738, 734, 723, 722, 722, 723, 720, 722, 722, 722, 728, 725, 723, 722, 722, 720, 720, 723, 727, 728, 728, 730, 731, 731, 730, 728, 728, 731, 734, 736, 733, 693, 691, 691, 733, 731, 731, 728, 728, 727, 727, 725, 727, 727, 727, 727, 727, 0, 0, 725, 725, 728, 728, 727, 725, 723, 722, 723, 728, 731, 738, 734, 739, 739, 725, 719, 736, 728, 725, 722, 720, 719, 719, 719, 0, 0, 733, 0, 0, 0, 0, 0, 0, 0, 0, 0, 0, 0, 0, 0, 0, 0, 0, 0, 0, 0, 0, 0, 0, 0, 0, 0, 0, 0, 0, 725, 725, 723, 723, 722, 722, 723, 723, 723, 723, 722, 722, 722, 723, 725, 723, 723, 728, 728, 730, 730, 734, 747, 720, 720, 0, 720, 0, 728, 720, 720, 720, 727, 727, 723, 723, 723, 723, 0, 0, 713, 713, 736, 736, 736, 730, 725, 727, 730, 731, 730, 733, 725, 727, 730, 730, 730, 728, 727, 727, 725, 727, 725, 725, 722, 720, 717, 720, 719, 723, 727, 731, 731, 727, 725, 722, 725, 733, 733, 730, 727, 727, 720, 716, 716, 716, 728, 728, 727, 723, 713, 717, 717, 717, 717, 0, 0, 0, 0,
       0, 0, 0, 0, 0, 714, 714, 714, 719, 719, 719, 704, 719, 719, 716, 714, 713, 714, 716, 717, 723, 722, 730, 719, 716, 717, 716, 716, 717, 716, 722, 728, 728, 727, 722, 722, 713, 711, 714, 723, 722, 720, 720, 720, 720, 720, 720, 723, 720, 722, 720, 720, 710, 710, 710, 728, 728, 722, 720, 720, 719, 719, 719, 717, 714, 716, 716, 708, 0, 714, 714, 714, 719, 722, 714, 714, 716, 716, 714, 716, 716, 717, 719, 716, 714, 714, 716, 716, 719, 717, 716, 719, 720, 720, 723, 723, 722, 722, 733, 733, 731, 728, 727, 722, 720, 717, 717, 716, 716, 717, 717, 716, 713, 713, 739, 739, 739, 716, 716, 719, 719, 720, 717, 719, 719, 717, 720, 720, 720, 720, 719, 719, 717, 714, 714, 728, 728, 728, 730, 731, 728, 728, 727, 727, 727, 698, 697, 697, 693, 693, 693, 706, 722, 722, 720, 717, 719, 717, 722, 722, 719, 719, 719, 719, 719, 0, 727, 728, 727, 723, 719, 719, 719, 719, 722, 722, 738, 738, 717, 717, 720, 716, 711, 711, 711, 717, 719, 719, 717, 720, 0, 0, 730, 0, 0, 0, 0, 0, 0, 0, 0, 0, 0, 0, 0, 0, 0, 0, 0, 0, 0, 0, 0, 0, 0, 0, 0, 0, 0, 0, 0, 720, 722, 722, 720, 720, 720, 720, 722, 720, 720, 719, 719, 719, 717, 717, 717, 717, 717, 728, 730, 730, 730, 730, 0, 0, 0, 0, 0, 0, 719, 719, 719, 723, 723, 722, 722, 722, 707, 704, 704, 713, 713, 711, 711, 711, 722, 722, 722, 701, 701, 700, 720, 720, 722, 720, 720, 704, 723, 723, 722, 722, 722, 722, 713, 713, 714, 716, 717, 717, 714, 714, 714, 717, 717, 716, 714, 711, 711, 725, 725, 722, 720, 714, 711, 711, 711, 714, 722, 720, 720, 713, 711, 711, 713, 714, 0, 0, 0, 0,
       0, 0, 0, 0, 707, 708, 711, 710, 708, 707, 704, 704, 719, 714, 714, 713, 711, 711, 713, 713, 716, 716, 714, 714, 714, 713, 714, 714, 714, 714, 714, 713, 706, 706, 710, 711, 710, 710, 711, 710, 710, 710, 707, 710, 710, 716, 716, 714, 713, 700, 703, 706, 708, 708, 710, 710, 710, 704, 707, 710, 714, 710, 716, 711, 710, 710, 708, 708, 707, 688, 711, 711, 710, 708, 708, 706, 713, 713, 713, 713, 713, 714, 714, 713, 713, 710, 711, 713, 714, 714, 710, 710, 698, 696, 696, 708, 708, 707, 707, 704, 704, 706, 706, 707, 707, 703, 706, 706, 710, 708, 708, 711, 710, 711, 713, 713, 713, 713, 714, 716, 716, 714, 714, 713, 713, 714, 719, 716, 719, 719, 716, 714, 710, 710, 708, 708, 706, 704, 704, 704, 728, 728, 727, 727, 707, 707, 704, 704, 706, 706, 706, 706, 704, 706, 714, 714, 714, 713, 714, 714, 716, 714, 713, 714, 716, 716, 704, 704, 704, 704, 714, 714, 716, 716, 716, 716, 704, 700, 700, 719, 716, 708, 708, 710, 708, 708, 706, 713, 713, 711, 0, 0, 0, 0, 0, 0, 0, 0, 0, 0, 0, 0, 0, 0, 0, 0, 0, 0, 0, 0, 0, 0, 0, 0, 0, 0, 0, 0, 0, 0, 701, 700, 700, 700, 700, 707, 707, 706, 706, 716, 716, 716, 716, 711, 711, 714, 714, 713, 704, 704, 703, 703, 731, 731, 0, 0, 0, 0, 0, 0, 716, 716, 716, 716, 719, 719, 719, 711, 707, 704, 704, 714, 714, 713, 711, 710, 710, 708, 707, 701, 701, 700, 700, 717, 717, 717, 701, 704, 701, 701, 707, 706, 706, 701, 701, 710, 710, 714, 710, 710, 710, 710, 708, 706, 706, 710, 711, 711, 710, 707, 704, 706, 706, 711, 710, 710, 708, 704, 714, 714, 710, 707, 707, 700, 710, 708, 0, 0, 0, 0,
       0, 0, 0, 701, 704, 703, 707, 706, 704, 704, 703, 703, 697, 697, 697, 708, 707, 704, 704, 704, 704, 713, 713, 711, 711, 707, 704, 703, 704, 707, 706, 697, 697, 696, 703, 707, 708, 708, 710, 708, 701, 703, 701, 707, 706, 717, 714, 694, 700, 700, 700, 701, 703, 704, 704, 704, 701, 701, 701, 700, 698, 704, 704, 706, 706, 700, 704, 707, 707, 688, 708, 710, 707, 707, 706, 703, 698, 694, 694, 693, 691, 693, 694, 698, 701, 707, 708, 703, 697, 697, 697, 698, 698, 696, 696, 693, 701, 701, 701, 703, 703, 704, 704, 704, 703, 703, 704, 703, 704, 707, 708, 710, 713, 713, 0, 0, 0, 0, 0, 704, 0, 704, 704, 703, 700, 698, 698, 693, 694, 694, 694, 701, 704, 707, 707, 707, 704, 704, 704, 698, 694, 694, 694, 700, 706, 707, 706, 706, 706, 703, 704, 704, 703, 701, 703, 701, 701, 710, 700, 706, 706, 706, 707, 703, 698, 703, 703, 704, 704, 704, 707, 711, 711, 711, 704, 704, 701, 698, 698, 697, 698, 704, 704, 704, 706, 706, 706, 706, 708, 708, 708, 0, 0, 0, 0, 0, 0, 0, 0, 0, 0, 0, 0, 0, 0, 0, 0, 0, 0, 0, 0, 0, 0, 0, 0, 0, 0, 0, 0, 0, 0, 688, 700, 700, 700, 701, 703, 706, 704, 704, 690, 696, 696, 708, 703, 703, 708, 704, 704, 704, 703, 703, 703, 688, 0, 0, 0, 0, 0, 0, 0, 0, 694, 697, 697, 697, 697, 697, 703, 703, 703, 713, 713, 711, 710, 708, 706, 698, 701, 700, 700, 700, 694, 711, 701, 701, 701, 700, 698, 698, 700, 700, 701, 701, 701, 703, 701, 701, 694, 707, 707, 703, 700, 696, 696, 697, 697, 706, 706, 704, 700, 704, 703, 704, 708, 708, 703, 701, 703, 703, 704, 703, 703, 698, 696, 700, 0, 0, 0, 0,
       0, 0, 0, 690, 703, 701, 701, 703, 703, 703, 703, 701, 696, 694, 696, 696, 701, 701, 693, 700, 698, 700, 711, 710, 700, 698, 698, 698, 694, 704, 701, 694, 694, 693, 693, 691, 693, 693, 691, 693, 693, 694, 700, 700, 690, 690, 690, 691, 693, 696, 698, 700, 698, 698, 697, 697, 703, 701, 700, 694, 693, 693, 693, 693, 697, 697, 697, 694, 693, 688, 691, 693, 694, 687, 694, 694, 691, 693, 691, 690, 690, 691, 693, 697, 697, 696, 694, 693, 691, 688, 688, 691, 693, 693, 691, 690, 687, 698, 694, 0, 694, 703, 703, 703, 698, 698, 700, 698, 700, 697, 697, 697, 697, 671, 0, 0, 0, 0, 0, 0, 0, 704, 698, 701, 698, 697, 693, 691, 693, 691, 691, 693, 703, 706, 707, 707, 704, 704, 703, 697, 693, 691, 691, 693, 703, 707, 703, 703, 703, 700, 698, 700, 698, 697, 697, 697, 700, 694, 697, 701, 703, 704, 704, 703, 698, 698, 703, 703, 704, 704, 704, 704, 698, 697, 697, 698, 700, 698, 698, 697, 696, 696, 691, 707, 707, 707, 707, 707, 706, 706, 0, 0, 0, 0, 0, 0, 0, 0, 0, 0, 0, 0, 0, 0, 0, 0, 0, 0, 0, 0, 0, 0, 0, 0, 0, 0, 0, 0, 0, 0, 687, 688, 688, 697, 697, 700, 703, 704, 704, 704, 690, 690, 688, 690, 690, 704, 704, 704, 704, 703, 703, 703, 703, 688, 688, 687, 687, 0, 0, 0, 0, 694, 694, 694, 696, 694, 694, 694, 696, 697, 697, 694, 694, 684, 684, 697, 697, 698, 698, 697, 694, 684, 686, 686, 679, 698, 698, 696, 696, 696, 693, 697, 697, 696, 696, 696, 696, 694, 694, 694, 683, 694, 694, 694, 691, 691, 691, 686, 684, 684, 696, 700, 701, 701, 693, 693, 698, 698, 697, 697, 679, 698, 698, 691, 688, 686, 0, 0, 0, 0,
       0, 0, 0, 0, 701, 698, 694, 691, 691, 696, 701, 696, 694, 693, 693, 690, 690, 688, 690, 690, 687, 687, 687, 687, 687, 687, 691, 690, 690, 691, 690, 690, 690, 690, 691, 690, 690, 690, 687, 690, 693, 684, 688, 686, 684, 687, 687, 690, 690, 688, 686, 683, 683, 683, 693, 691, 691, 687, 691, 690, 690, 688, 687, 682, 682, 675, 676, 688, 688, 687, 687, 687, 686, 686, 686, 680, 684, 688, 687, 687, 687, 687, 687, 690, 690, 690, 690, 688, 688, 687, 687, 687, 686, 687, 687, 687, 686, 684, 684, 679, 0, 0, 682, 682, 696, 696, 687, 688, 688, 684, 678, 678, 0, 671, 671, 0, 0, 0, 0, 0, 0, 676, 0, 682, 682, 682, 687, 688, 687, 688, 688, 688, 676, 676, 687, 687, 703, 700, 698, 697, 693, 691, 691, 688, 687, 687, 675, 694, 694, 696, 694, 694, 696, 693, 691, 693, 700, 697, 697, 696, 680, 701, 701, 698, 693, 687, 684, 683, 684, 684, 687, 690, 690, 693, 693, 686, 686, 679, 675, 694, 694, 691, 691, 693, 687, 683, 683, 682, 679, 678, 0, 0, 0, 0, 0, 0, 0, 0, 0, 0, 0, 0, 0, 0, 0, 0, 0, 0, 0, 0, 0, 0, 0, 0, 0, 0, 0, 680, 682, 683, 683, 686, 687, 688, 688, 688, 683, 683, 682, 682, 687, 687, 687, 687, 680, 680, 686, 684, 684, 703, 703, 700, 700, 690, 688, 687, 0, 0, 0, 0, 0, 688, 688, 688, 688, 691, 691, 691, 691, 693, 693, 691, 684, 684, 684, 690, 690, 691, 690, 693, 688, 682, 682, 680, 679, 679, 679, 687, 690, 691, 691, 691, 683, 683, 675, 672, 674, 691, 687, 683, 683, 684, 684, 686, 684, 684, 683, 683, 683, 683, 690, 690, 676, 676, 672, 659, 683, 683, 683, 683, 680, 678, 678, 680, 684, 680, 0, 0, 0, 0,
       0, 0, 680, 680, 676, 676, 676, 680, 682, 682, 682, 691, 693, 693, 672, 683, 683, 684, 683, 680, 680, 678, 680, 682, 683, 683, 680, 676, 678, 676, 684, 682, 686, 686, 690, 687, 686, 686, 682, 680, 680, 680, 680, 686, 686, 684, 682, 683, 683, 682, 683, 682, 682, 682, 682, 672, 672, 680, 683, 682, 680, 680, 679, 679, 676, 675, 676, 675, 675, 683, 683, 684, 680, 680, 676, 675, 679, 682, 683, 683, 683, 684, 682, 680, 679, 676, 675, 680, 687, 686, 686, 686, 682, 683, 682, 682, 680, 680, 679, 679, 0, 0, 0, 682, 682, 683, 684, 684, 684, 684, 678, 678, 671, 671, 671, 671, 672, 672, 0, 0, 676, 676, 679, 679, 678, 678, 678, 682, 682, 682, 680, 676, 676, 676, 686, 687, 684, 680, 679, 676, 676, 675, 675, 684, 678, 676, 675, 674, 674, 691, 691, 676, 676, 676, 674, 674, 679, 679, 680, 682, 680, 683, 686, 686, 687, 687, 686, 684, 684, 683, 686, 686, 687, 687, 683, 682, 679, 679, 675, 675, 675, 679, 679, 678, 678, 679, 679, 679, 676, 676, 675, 0, 0, 0, 0, 0, 0, 672, 0, 0, 0, 0, 0, 0, 672, 671, 0, 0, 0, 0, 672, 674, 0, 0, 676, 674, 0, 684, 684, 684, 684, 684, 686, 687, 687, 687, 680, 682, 682, 684, 687, 683, 683, 682, 676, 679, 686, 684, 684, 684, 678, 676, 676, 670, 670, 670, 0, 0, 0, 0, 686, 686, 687, 687, 687, 688, 688, 688, 674, 674, 684, 684, 683, 682, 680, 679, 687, 687, 687, 679, 678, 680, 679, 676, 676, 678, 678, 679, 686, 676, 676, 678, 679, 679, 678, 675, 676, 676, 678, 679, 676, 675, 672, 680, 680, 683, 682, 683, 683, 682, 682, 676, 676, 672, 0, 0, 0, 0, 672, 672, 676, 675, 676, 676, 676, 678, 0, 0, 0, 0,
       680, 678, 676, 672, 675, 674, 675, 675, 674, 682, 671, 672, 671, 672, 672, 672, 678, 680, 679, 679, 678, 675, 676, 679, 676, 678, 676, 675, 675, 674, 674, 675, 678, 679, 675, 675, 676, 675, 676, 675, 671, 671, 670, 670, 670, 679, 679, 675, 676, 674, 675, 679, 671, 667, 670, 668, 668, 671, 671, 675, 675, 675, 676, 675, 674, 674, 674, 674, 667, 667, 667, 670, 671, 670, 672, 671, 672, 676, 670, 680, 680, 680, 680, 674, 674, 674, 672, 672, 671, 671, 664, 679, 679, 679, 676, 676, 676, 676, 676, 676, 655, 655, 0, 679, 679, 679, 679, 680, 676, 672, 672, 671, 671, 671, 671, 671, 675, 636, 0, 0, 0, 676, 676, 676, 676, 678, 678, 679, 679, 676, 676, 676, 675, 675, 686, 686, 686, 679, 676, 676, 675, 674, 675, 682, 676, 676, 675, 671, 671, 670, 670, 675, 675, 676, 674, 674, 680, 679, 679, 682, 680, 680, 684, 683, 686, 687, 684, 682, 682, 682, 682, 683, 683, 682, 680, 678, 675, 672, 672, 670, 675, 676, 676, 676, 676, 678, 676, 678, 676, 675, 675, 675, 675, 674, 675, 0, 0, 0, 0, 667, 666, 0, 666, 668, 671, 668, 668, 667, 668, 670, 672, 674, 678, 672, 675, 672, 672, 676, 676, 648, 648, 648, 672, 671, 670, 668, 675, 679, 678, 678, 667, 668, 667, 678, 676, 676, 676, 687, 686, 680, 676, 675, 675, 670, 670, 670, 0, 0, 672, 668, 664, 663, 683, 682, 678, 678, 667, 667, 674, 674, 672, 683, 667, 682, 680, 675, 672, 674, 672, 675, 674, 672, 672, 671, 672, 674, 671, 671, 671, 671, 672, 676, 678, 679, 678, 676, 676, 675, 675, 676, 676, 678, 674, 674, 672, 683, 678, 680, 680, 679, 674, 674, 672, 672, 662, 659, 657, 657, 670, 670, 668, 670, 668, 671, 670, 668, 0, 0, 0, 0,
       0, 671, 671, 671, 672, 674, 675, 674, 671, 664, 666, 667, 670, 671, 671, 671, 671, 659, 668, 668, 667, 668, 668, 670, 664, 662, 663, 664, 666, 666, 667, 667, 666, 667, 668, 668, 671, 670, 668, 667, 667, 667, 667, 668, 670, 670, 671, 670, 667, 668, 666, 664, 666, 666, 666, 667, 666, 666, 667, 661, 672, 674, 668, 668, 671, 672, 672, 671, 667, 667, 667, 668, 668, 667, 668, 666, 668, 666, 664, 663, 661, 659, 661, 661, 671, 671, 670, 666, 668, 664, 664, 664, 666, 666, 672, 672, 674, 674, 670, 670, 655, 655, 655, 652, 661, 661, 659, 659, 667, 667, 670, 664, 668, 670, 662, 662, 637, 637, 0, 0, 0, 666, 671, 672, 675, 0, 662, 662, 664, 664, 674, 674, 674, 0, 0, 0, 675, 674, 674, 674, 674, 672, 672, 674, 674, 672, 672, 670, 670, 667, 668, 672, 674, 674, 672, 671, 671, 661, 661, 661, 661, 661, 661, 659, 661, 663, 663, 668, 676, 670, 667, 664, 664, 662, 662, 662, 672, 671, 671, 668, 672, 672, 675, 674, 672, 661, 661, 672, 672, 675, 675, 675, 675, 672, 672, 0, 0, 0, 0, 0, 664, 662, 663, 663, 664, 666, 667, 667, 666, 666, 676, 676, 671, 671, 667, 668, 668, 668, 670, 650, 650, 663, 662, 657, 657, 657, 655, 670, 670, 667, 666, 666, 666, 666, 672, 670, 662, 662, 663, 663, 664, 664, 664, 667, 668, 668, 670, 674, 672, 671, 663, 661, 661, 657, 657, 675, 662, 663, 668, 667, 668, 667, 667, 667, 676, 672, 671, 671, 672, 675, 674, 672, 671, 670, 670, 667, 667, 668, 668, 668, 668, 667, 676, 676, 653, 652, 650, 672, 672, 671, 671, 671, 670, 670, 666, 688, 688, 680, 680, 680, 672, 672, 670, 666, 662, 659, 657, 657, 663, 663, 666, 667, 667, 666, 666, 663, 0, 0, 0, 0,
       663, 664, 666, 666, 666, 672, 675, 671, 664, 662, 662, 659, 664, 668, 668, 652, 650, 659, 661, 663, 662, 666, 667, 668, 661, 659, 661, 659, 661, 662, 662, 662, 663, 662, 662, 662, 661, 664, 663, 663, 664, 662, 662, 661, 658, 657, 671, 668, 666, 664, 659, 659, 663, 664, 664, 664, 664, 655, 652, 654, 655, 657, 657, 662, 662, 650, 648, 647, 647, 666, 666, 664, 666, 663, 664, 664, 658, 661, 661, 659, 658, 657, 657, 657, 657, 661, 661, 661, 661, 662, 661, 661, 661, 661, 671, 671, 679, 679, 655, 655, 654, 654, 655, 652, 661, 661, 659, 662, 661, 661, 655, 663, 663, 664, 662, 661, 659, 657, 657, 0, 671, 671, 671, 671, 671, 671, 661, 661, 659, 659, 661, 661, 662, 0, 0, 0, 0, 667, 0, 0, 0, 0, 0, 670, 0, 670, 664, 664, 664, 666, 666, 666, 671, 671, 661, 663, 663, 663, 661, 662, 661, 659, 662, 659, 661, 662, 662, 663, 662, 663, 663, 662, 663, 662, 662, 662, 662, 666, 0, 666, 657, 657, 668, 657, 662, 659, 658, 657, 655, 655, 652, 650, 664, 664, 657, 0, 658, 0, 663, 0, 662, 662, 661, 661, 662, 663, 662, 661, 661, 662, 659, 659, 658, 658, 661, 667, 659, 654, 650, 648, 666, 663, 662, 657, 657, 657, 655, 657, 653, 666, 666, 666, 664, 663, 662, 662, 662, 662, 662, 661, 662, 663, 658, 661, 661, 644, 672, 672, 671, 671, 653, 655, 655, 655, 657, 657, 662, 662, 662, 666, 666, 666, 667, 667, 667, 646, 644, 647, 647, 671, 672, 671, 671, 668, 668, 666, 666, 668, 647, 647, 657, 657, 655, 654, 653, 652, 650, 652, 652, 659, 659, 659, 649, 652, 652, 652, 654, 654, 652, 652, 650, 650, 647, 650, 654, 654, 654, 655, 657, 657, 657, 653, 659, 659, 657, 657, 0, 0, 0, 0,
       0, 0, 663, 661, 661, 650, 650, 649, 650, 650, 654, 654, 650, 652, 652, 652, 650, 652, 659, 661, 661, 661, 658, 652, 654, 653, 655, 657, 655, 658, 657, 657, 659, 655, 658, 659, 658, 659, 661, 659, 662, 659, 657, 655, 654, 654, 650, 649, 650, 650, 654, 655, 655, 655, 652, 650, 650, 652, 650, 652, 652, 652, 652, 652, 650, 650, 648, 648, 647, 647, 647, 652, 650, 654, 653, 652, 654, 652, 655, 654, 653, 653, 652, 652, 653, 654, 655, 654, 655, 654, 652, 650, 648, 648, 643, 683, 683, 649, 650, 653, 652, 652, 654, 649, 649, 640, 640, 640, 647, 647, 650, 650, 661, 661, 641, 640, 657, 655, 654, 650, 650, 674, 674, 674, 674, 0, 659, 659, 659, 659, 661, 661, 661, 0, 0, 0, 0, 0, 664, 0, 0, 0, 635, 635, 0, 0, 641, 638, 640, 647, 647, 647, 661, 662, 661, 659, 658, 650, 650, 650, 650, 650, 654, 658, 658, 661, 661, 662, 662, 661, 661, 0, 661, 661, 661, 661, 661, 0, 0, 655, 655, 657, 658, 657, 661, 659, 657, 654, 654, 654, 652, 650, 649, 650, 655, 0, 657, 652, 0, 0, 0, 657, 657, 658, 658, 662, 655, 655, 655, 653, 653, 654, 655, 655, 650, 653, 653, 652, 650, 649, 648, 652, 655, 653, 653, 654, 652, 653, 652, 650, 664, 663, 663, 662, 661, 661, 658, 658, 659, 658, 659, 663, 657, 659, 659, 644, 646, 646, 647, 649, 650, 652, 654, 655, 655, 655, 655, 636, 0, 644, 646, 646, 647, 646, 644, 646, 644, 644, 646, 646, 647, 648, 649, 649, 649, 649, 646, 646, 644, 646, 647, 655, 653, 653, 650, 650, 650, 654, 654, 652, 654, 652, 649, 650, 652, 650, 652, 652, 649, 648, 648, 647, 647, 650, 650, 653, 654, 654, 654, 654, 649, 649, 652, 652, 655, 655, 0, 0, 0, 0,
       0, 0, 644, 644, 644, 644, 648, 647, 647, 647, 646, 647, 649, 650, 649, 650, 648, 647, 647, 636, 636, 636, 636, 649, 650, 650, 650, 650, 649, 648, 649, 648, 650, 649, 649, 652, 650, 650, 653, 652, 650, 654, 654, 653, 653, 652, 647, 647, 647, 647, 649, 652, 653, 652, 650, 649, 649, 649, 649, 650, 649, 650, 649, 648, 644, 642, 644, 644, 646, 646, 646, 648, 648, 650, 650, 649, 652, 649, 652, 653, 652, 652, 650, 650, 649, 649, 650, 649, 649, 653, 650, 648, 648, 646, 643, 643, 644, 647, 647, 647, 649, 650, 653, 646, 644, 642, 641, 641, 643, 644, 644, 644, 643, 641, 641, 640, 638, 638, 636, 636, 0, 0, 627, 627, 0, 0, 631, 0, 0, 0, 631, 0, 0, 0, 0, 0, 0, 0, 0, 0, 0, 0, 0, 0, 0, 0, 641, 638, 640, 638, 644, 644, 641, 641, 641, 641, 642, 646, 648, 649, 648, 646, 643, 641, 641, 646, 646, 644, 646, 646, 646, 0, 0, 0, 0, 0, 0, 0, 0, 0, 654, 0, 0, 0, 0, 0, 0, 0, 0, 654, 0, 0, 650, 0, 0, 0, 0, 0, 0, 0, 0, 655, 654, 654, 653, 647, 652, 652, 652, 652, 647, 648, 649, 649, 650, 649, 650, 649, 644, 646, 647, 648, 649, 650, 649, 649, 650, 652, 652, 647, 643, 642, 642, 643, 644, 643, 643, 642, 640, 642, 658, 641, 641, 641, 643, 643, 643, 643, 646, 647, 648, 649, 649, 637, 637, 637, 636, 636, 631, 644, 644, 643, 642, 638, 641, 646, 644, 644, 647, 646, 647, 648, 648, 647, 647, 646, 642, 643, 642, 643, 642, 642, 652, 636, 646, 647, 644, 643, 652, 652, 652, 650, 647, 647, 649, 649, 650, 650, 649, 647, 647, 647, 646, 644, 643, 643, 643, 641, 640, 641, 642, 642, 642, 653, 653, 654, 0, 0, 0, 0,
       644, 644, 644, 646, 641, 641, 648, 646, 647, 648, 646, 646, 643, 646, 646, 646, 646, 641, 642, 641, 642, 637, 636, 644, 635, 648, 649, 648, 647, 646, 646, 644, 644, 646, 646, 641, 641, 641, 641, 640, 641, 638, 640, 638, 643, 646, 644, 644, 644, 646, 647, 646, 649, 650, 650, 649, 649, 648, 648, 648, 648, 648, 648, 644, 642, 641, 641, 641, 642, 642, 643, 644, 646, 646, 646, 646, 646, 647, 648, 648, 648, 649, 649, 649, 647, 646, 636, 636, 635, 637, 637, 632, 642, 642, 642, 641, 643, 646, 646, 646, 641, 638, 638, 640, 640, 640, 640, 641, 641, 642, 0, 0, 638, 640, 641, 640, 640, 637, 636, 636, 636, 0, 0, 627, 0, 0, 630, 0, 631, 631, 0, 0, 0, 0, 0, 0, 0, 0, 0, 0, 0, 0, 0, 635, 635, 635, 641, 638, 640, 638, 637, 637, 640, 640, 640, 640, 641, 642, 643, 643, 640, 640, 636, 636, 636, 637, 640, 641, 642, 642, 636, 636, 0, 0, 0, 0, 0, 0, 0, 0, 0, 0, 0, 0, 0, 0, 0, 0, 0, 0, 0, 0, 0, 0, 0, 0, 0, 0, 0, 0, 0, 0, 0, 653, 653, 647, 646, 643, 643, 637, 646, 648, 647, 647, 648, 647, 642, 641, 642, 643, 643, 643, 643, 641, 640, 640, 640, 640, 642, 644, 640, 640, 640, 641, 643, 641, 641, 641, 638, 641, 641, 640, 640, 640, 640, 641, 637, 641, 641, 632, 636, 636, 636, 635, 635, 635, 632, 631, 631, 630, 632, 632, 641, 636, 637, 642, 641, 642, 644, 644, 646, 646, 646, 646, 646, 640, 640, 641, 642, 642, 641, 640, 635, 636, 638, 641, 641, 641, 631, 631, 649, 649, 647, 644, 634, 630, 631, 630, 630, 647, 647, 647, 646, 644, 643, 641, 642, 642, 641, 642, 641, 637, 634, 632, 631, 632, 0, 0, 0, 0,
       0, 0, 641, 640, 640, 640, 640, 641, 641, 636, 641, 640, 641, 641, 631, 631, 632, 640, 641, 640, 640, 635, 635, 635, 632, 631, 631, 624, 644, 644, 643, 641, 641, 632, 631, 631, 635, 635, 635, 635, 634, 635, 636, 636, 637, 636, 640, 642, 642, 643, 644, 630, 631, 632, 632, 648, 648, 648, 648, 646, 631, 631, 631, 640, 640, 640, 640, 632, 638, 637, 636, 636, 636, 625, 636, 636, 636, 635, 634, 634, 609, 629, 627, 631, 631, 630, 631, 632, 634, 634, 632, 632, 627, 624, 623, 638, 638, 638, 634, 631, 635, 635, 636, 635, 636, 635, 632, 641, 0, 0, 0, 0, 635, 634, 631, 631, 632, 632, 635, 634, 632, 635, 627, 627, 0, 629, 630, 630, 630, 630, 630, 621, 0, 0, 0, 0, 0, 0, 0, 0, 0, 0, 0, 0, 634, 634, 634, 628, 628, 636, 636, 636, 636, 636, 638, 638, 640, 640, 640, 631, 631, 631, 632, 634, 634, 636, 637, 637, 637, 637, 636, 0, 0, 0, 0, 0, 0, 0, 0, 0, 0, 0, 0, 0, 0, 0, 0, 0, 0, 0, 0, 0, 0, 0, 0, 0, 0, 0, 0, 0, 0, 0, 0, 0, 618, 640, 640, 640, 637, 635, 634, 632, 631, 631, 622, 632, 632, 632, 641, 641, 642, 641, 641, 640, 637, 636, 636, 636, 636, 636, 636, 636, 634, 632, 631, 630, 630, 637, 634, 634, 635, 635, 638, 638, 638, 637, 634, 634, 632, 632, 636, 635, 634, 634, 634, 634, 631, 630, 630, 630, 631, 631, 631, 632, 632, 632, 632, 631, 631, 623, 623, 623, 628, 628, 630, 634, 637, 637, 637, 641, 641, 640, 637, 635, 636, 636, 637, 635, 631, 631, 631, 646, 646, 641, 632, 630, 630, 628, 627, 627, 627, 642, 642, 642, 628, 629, 635, 629, 629, 636, 632, 632, 632, 632, 623, 623, 0, 0, 0, 0,
       0, 0, 638, 636, 638, 638, 627, 627, 627, 628, 630, 630, 629, 629, 629, 629, 630, 632, 623, 623, 630, 631, 635, 635, 631, 630, 624, 624, 624, 622, 622, 622, 630, 630, 630, 629, 630, 629, 631, 631, 630, 631, 634, 627, 637, 635, 627, 625, 623, 624, 627, 628, 629, 630, 631, 630, 630, 627, 627, 624, 629, 631, 631, 623, 623, 623, 631, 630, 629, 632, 631, 631, 625, 0, 0, 636, 636, 635, 634, 609, 609, 629, 627, 629, 630, 627, 628, 630, 631, 631, 631, 630, 627, 624, 623, 623, 618, 634, 634, 628, 628, 621, 631, 631, 632, 630, 0, 0, 0, 0, 0, 0, 634, 631, 630, 630, 630, 628, 629, 630, 630, 630, 623, 623, 629, 629, 631, 630, 629, 629, 623, 621, 621, 620, 620, 0, 0, 0, 628, 628, 629, 625, 629, 631, 630, 630, 629, 628, 628, 628, 619, 621, 624, 624, 622, 623, 623, 622, 631, 631, 631, 631, 631, 631, 627, 632, 635, 635, 636, 637, 637, 0, 0, 0, 0, 0, 0, 0, 0, 0, 0, 0, 0, 0, 0, 0, 0, 0, 0, 0, 0, 0, 0, 0, 0, 0, 0, 0, 0, 0, 0, 0, 0, 0, 618, 618, 618, 618, 631, 631, 631, 632, 631, 623, 622, 625, 630, 630, 627, 627, 641, 641, 641, 631, 635, 631, 632, 631, 631, 623, 636, 636, 635, 635, 632, 628, 625, 624, 631, 631, 631, 631, 631, 625, 622, 624, 630, 630, 629, 629, 620, 630, 630, 631, 631, 631, 629, 628, 625, 627, 630, 631, 629, 628, 628, 623, 623, 623, 623, 623, 623, 623, 627, 627, 627, 630, 630, 616, 625, 625, 641, 641, 640, 625, 623, 623, 615, 630, 630, 630, 613, 612, 614, 615, 615, 618, 622, 622, 624, 624, 623, 625, 625, 619, 625, 625, 620, 625, 625, 624, 627, 624, 624, 623, 623, 622, 0, 0, 0, 0,
       0, 0, 0, 0, 619, 623, 623, 622, 622, 622, 613, 625, 625, 625, 627, 628, 629, 625, 621, 619, 619, 618, 627, 632, 634, 634, 620, 621, 620, 620, 620, 621, 621, 629, 629, 628, 624, 625, 625, 625, 625, 625, 623, 623, 622, 624, 624, 622, 621, 622, 623, 624, 625, 628, 629, 629, 629, 622, 622, 621, 621, 613, 613, 613, 622, 622, 622, 623, 627, 628, 627, 625, 625, 607, 606, 606, 604, 604, 610, 610, 615, 615, 612, 613, 621, 621, 621, 623, 623, 629, 629, 629, 625, 625, 622, 618, 618, 618, 611, 622, 622, 621, 620, 620, 620, 620, 0, 0, 0, 0, 0, 0, 622, 622, 629, 629, 625, 624, 624, 621, 622, 621, 621, 621, 619, 619, 630, 630, 629, 629, 621, 619, 620, 616, 614, 0, 613, 614, 614, 611, 623, 623, 619, 619, 624, 622, 625, 620, 621, 619, 619, 621, 621, 624, 622, 622, 623, 622, 624, 627, 630, 630, 616, 623, 623, 630, 632, 632, 618, 618, 619, 619, 620, 0, 0, 0, 0, 0, 0, 0, 0, 0, 0, 0, 0, 0, 0, 0, 0, 0, 0, 0, 0, 0, 0, 0, 0, 0, 0, 0, 0, 621, 619, 619, 618, 618, 618, 618, 614, 614, 629, 630, 606, 622, 622, 627, 629, 628, 627, 627, 615, 615, 628, 628, 628, 627, 628, 628, 623, 623, 624, 621, 620, 619, 620, 619, 621, 622, 622, 630, 631, 615, 615, 615, 619, 622, 621, 620, 621, 620, 620, 621, 620, 619, 618, 614, 614, 619, 621, 619, 618, 618, 620, 620, 619, 620, 619, 619, 621, 620, 621, 621, 623, 623, 620, 620, 618, 616, 618, 619, 642, 642, 642, 621, 619, 620, 615, 614, 614, 613, 613, 612, 614, 615, 615, 618, 618, 618, 618, 618, 623, 625, 624, 620, 620, 619, 619, 625, 624, 621, 620, 621, 620, 618, 620, 620, 0, 0, 0, 0 ]
